//X Y Z R G B Intensity
6.42999983 8.61800003 0.01825000 211 207 221 20642
6.42950010 8.61725044 0.01875000 211 207 221 20564
6.42999983 8.61800003 0.01925000 211 207 221 21117
6.42974997 8.61750031 0.02025000 211 207 221 21035
6.42924976 8.61700058 0.02075000 211 207 221 20796
6.42875004 8.61625004 0.02250000 213 213 225 20567
6.42875004 8.61625004 0.02300000 213 213 225 20567
6.42924976 8.61700058 0.02350000 213 213 225 20642
6.42899990 8.61674976 0.02400000 213 213 225 20567
6.42824984 8.61575031 0.02450000 213 213 225 20117
6.42850018 8.61600018 0.02500000 213 213 225 20264
6.42850018 8.61600018 0.02550000 213 213 225 19689
6.42824984 8.61549950 0.02600000 213 213 225 19971
6.42875004 8.61625004 0.02650000 209 217 228 19757
6.42850018 8.61575031 0.02700000 209 217 228 20046
6.42749977 8.61474991 0.02800000 209 217 228 20339
6.42824984 8.61575031 0.02850000 209 217 228 21117
6.42749977 8.61474991 0.02950000 209 217 228 21953
6.42799997 8.61549950 0.03000000 209 217 228 21360
6.42799997 8.61524963 0.03100000 201 215 224 21117
6.42799997 8.61524963 0.03150000 201 215 224 20878
6.42775011 8.61499977 0.03200000 201 215 224 20642
6.42724991 8.61425018 0.03300000 201 215 224 20957
6.42675018 8.61375046 0.03350000 201 215 224 21117
6.42624998 8.61275005 0.03700000 199 216 223 19689
6.42675018 8.61375046 0.03750000 199 216 223 19346
6.42600012 8.61250019 0.03800000 199 216 223 19482
6.42649984 8.61324978 0.03850000 199 216 223 19550
6.42574978 8.61250019 0.03900000 199 216 223 19410
6.42624998 8.61299992 0.04000000 200 211 213 20121
6.42624998 8.61299992 0.04100000 200 211 213 20492
6.42549992 8.61225033 0.04150000 200 211 213 21117
6.42600012 8.61250019 0.04250000 200 211 213 20721
6.42600012 8.61250019 0.04300000 200 211 213 19975
6.42600012 8.61250019 0.04350000 200 211 213 19689
6.42525005 8.61149979 0.04400000 216 213 208 19078
6.42500019 8.61124992 0.04600000 216 213 208 16132
6.42500019 8.61124992 0.04750000 216 213 208 7892
6.44400024 8.63599968 -0.06050000 124 112 134 15532
6.44324970 8.63500023 -0.06000000 124 112 134 17335
6.44350004 8.63500023 -0.05950000 124 112 134 18492
6.44324970 8.63475037 -0.05900000 165 162 181 19267
6.44350004 8.63500023 -0.05850000 165 162 181 19817
6.44299984 8.63450050 -0.05800000 165 162 181 20328
6.44374990 8.63549995 -0.05750000 165 162 181 20710
6.44350004 8.63525009 -0.05700000 165 162 181 20328
6.44324970 8.63500023 -0.05650000 165 162 181 20182
6.44299984 8.63450050 -0.05600000 165 162 181 20107
6.44274998 8.63424969 -0.05550000 165 162 181 19892
6.44274998 8.63424969 -0.05500000 165 162 181 19750
6.44225025 8.63350010 -0.05450000 191 197 211 19964
6.44274998 8.63399982 -0.05350000 191 197 211 20407
6.44199991 8.63325024 -0.05300000 191 197 211 20407
6.44250011 8.63399982 -0.05250000 191 197 211 20867
6.44199991 8.63325024 -0.05200000 191 197 211 20867
6.44250011 8.63374996 -0.05100000 191 197 211 20110
6.44250011 8.63374996 -0.05050000 191 197 211 20110
6.44199991 8.63325024 -0.05000000 193 205 217 20035
6.44199991 8.63325024 -0.04950000 193 205 217 20328
6.44124985 8.63224983 -0.04900000 193 205 217 20110
6.44124985 8.63224983 -0.04850000 193 205 217 19892
6.44175005 8.63274956 -0.04625000 193 205 217 20710
6.44075012 8.63175011 -0.04575000 193 205 217 20557
6.44149971 8.63249969 -0.04525000 192 206 217 21028
6.44175005 8.63274956 -0.04475000 192 206 217 21107
6.44099998 8.63199997 -0.04425000 192 206 217 21689
6.44050026 8.63150024 -0.04275000 192 206 217 22210
6.44050026 8.63100052 -0.04225000 192 206 217 22032
6.44050026 8.63100052 -0.04175000 192 206 217 21857
6.44050026 8.63150024 -0.04125000 192 206 217 21107
6.43974972 8.63024998 -0.03975000 199 211 223 19896
6.43974972 8.63000011 -0.03925000 199 211 223 19542
6.44000006 8.63074970 -0.03875000 199 211 223 19610
6.43949986 8.63000011 -0.03775000 199 211 223 19403
6.43949986 8.62975025 -0.03725000 199 211 223 19335
6.43924999 8.62949944 -0.03375000 194 202 213 19610
6.43900013 8.62924957 -0.03325000 194 202 213 20110
6.43924999 8.62949944 -0.03275000 194 202 213 20110
6.43900013 8.62924957 -0.03225000 194 202 213 19403
6.43849993 8.62849998 -0.03175000 202 206 218 19753
6.43825006 8.62825012 -0.03125000 202 206 218 20260
6.43849993 8.62849998 -0.03075000 202 206 218 20039
6.43825006 8.62825012 -0.02925000 202 206 218 20714
6.43774986 8.62750053 -0.02825000 202 206 218 20950
6.43799973 8.62775040 -0.02775000 202 206 218 20871
6.43774986 8.62750053 -0.02725000 210 209 223 20950
6.43849993 8.62849998 -0.02650000 210 209 223 21189
6.43825006 8.62825012 -0.02600000 210 209 223 20635
6.43799973 8.62800026 -0.02550000 210 209 223 21110
6.43799973 8.62800026 -0.02450000 210 209 223 20332
6.43750000 8.62724972 -0.02400000 210 209 223 20332
6.43799973 8.62775040 -0.02375000 210 209 223 20560
6.43750000 8.62724972 -0.02325000 210 208 222 21028
6.43700027 8.62650013 -0.02275000 210 208 222 20639
6.43725014 8.62674999 -0.02225000 210 208 222 20410
6.43700027 8.62674999 -0.02175000 210 208 222 20039
6.43700027 8.62650013 -0.02125000 210 208 222 19821
6.43599987 8.62500000 -0.01800000 207 206 220 18942
6.43599987 8.62524986 -0.01700000 207 206 220 18314
6.43575001 8.62475014 -0.01650000 207 206 220 18014
6.43599987 8.62524986 -0.01350000 196 196 208 11667
6.43499994 8.62374973 -0.01000000 196 196 208 2292
6.43449974 8.62325001 -0.00900000 149 151 163 1675
6.43424988 8.62275028 -0.00750000 149 151 163 1350
6.43499994 8.62374973 -0.00650000 149 151 163 1289
6.43475008 8.62349987 -0.00550000 149 151 163 1357
6.43375015 8.62224960 -0.00500000 94 96 108 1396
6.43350029 8.62174988 -0.00250000 94 96 108 2378
6.43375015 8.62199974 -0.00100000 94 96 108 5807
6.43350029 8.62174988 -0.00050000 103 103 115 7725
6.43324995 8.62125015 0.00000000 103 103 115 10396
6.43375015 8.62224960 0.00025000 103 103 115 12832
6.43274975 8.62075043 0.00125000 103 103 115 16760
6.43300009 8.62100029 0.00225000 103 103 115 19275
6.43249989 8.62050056 0.00275000 103 103 115 20189
6.43300009 8.62100029 0.00425000 153 149 163 20717
6.43324995 8.62125015 0.00475000 153 149 163 20485
6.43274975 8.62075043 0.00575000 153 149 163 20875
6.43249989 8.62050056 0.00675000 153 149 163 19967
6.43249989 8.62050056 0.00775000 153 149 163 19275
6.43200016 8.61975002 0.00875000 200 194 206 18500
6.43149996 8.61925030 0.00925000 200 194 206 18503
6.43099976 8.61849976 0.01075000 200 194 206 18378
6.43149996 8.61925030 0.01125000 200 194 206 18378
6.43099976 8.61824989 0.01175000 200 194 206 18503
6.43125010 8.61874962 0.01225000 200 194 206 18878
6.42999983 8.61725044 0.01650000 214 208 220 21196
6.43025017 8.61750031 0.01700000 214 208 220 21196
6.43050003 8.61775017 0.01800000 211 207 221 20642
6.43050003 8.61775017 0.01850000 211 207 221 20642
6.42974997 8.61674976 0.01900000 211 207 221 20878
6.42974997 8.61674976 0.01950000 211 207 221 21278
6.42999983 8.61700058 0.02000000 211 207 221 21278
6.42999983 8.61700058 0.02050000 211 207 221 21278
6.42924976 8.61625004 0.02100000 211 207 221 20642
6.42974997 8.61674976 0.02200000 213 213 225 20642
6.42999983 8.61725044 0.02250000 213 213 225 20489
6.42950010 8.61649990 0.02300000 213 213 225 20642
6.42899990 8.61575031 0.02400000 213 213 225 20117
6.42899990 8.61575031 0.02500000 213 213 225 19478
6.42950010 8.61649990 0.02550000 213 213 225 19550
6.42899990 8.61600018 0.02600000 213 213 225 19617
6.42875004 8.61524963 0.02650000 209 217 228 19689
6.42824984 8.61499977 0.02700000 209 217 228 19903
6.42824984 8.61499977 0.02750000 209 217 228 20117
6.42850018 8.61499977 0.02800000 209 217 228 20489
6.42899990 8.61575031 0.02850000 209 217 228 20878
6.42899990 8.61575031 0.02900000 209 217 228 21278
6.42850018 8.61524963 0.02950000 209 217 228 21528
6.42799997 8.61450005 0.03000000 209 217 228 21360
6.42749977 8.61375046 0.03100000 201 215 224 21360
6.42824984 8.61474991 0.03300000 201 215 224 21200
6.42775011 8.61400032 0.03350000 201 215 224 21117
6.42799997 8.61450005 0.03450000 201 215 224 21200
6.42675018 8.61299992 0.03700000 199 216 223 19482
6.42724991 8.61350060 0.03750000 199 216 223 19078
6.42724991 8.61350060 0.03800000 199 216 223 18950
6.42724991 8.61350060 0.03850000 199 216 223 19010
6.42574978 8.61124992 0.04250000 200 211 213 20046
6.42600012 8.61199951 0.04300000 200 211 213 19832
6.42624998 8.61225033 0.04350000 200 211 213 19482
6.42500019 8.61050034 0.04550000 216 213 208 17789
6.42525005 8.61075020 0.04750000 216 213 208 8007
6.42525005 8.61075020 0.04800000 216 213 208 5525
6.44449997 8.63574982 -0.06100000 127 117 141 11914
6.44425011 8.63525009 -0.06050000 127 117 141 14625
6.44350004 8.63450050 -0.05950000 127 117 141 18010
6.44400024 8.63500023 -0.05750000 169 167 188 21025
6.44299984 8.63374996 -0.05650000 169 167 188 20946
6.44350004 8.63424969 -0.05600000 169 167 188 20328
6.44274998 8.63350010 -0.05550000 169 167 188 20257
6.44250011 8.63325024 -0.05450000 192 198 214 20110
6.44299984 8.63350010 -0.05350000 192 198 214 20110
6.44299984 8.63374996 -0.05300000 192 198 214 20328
6.44250011 8.63299942 -0.05250000 192 198 214 21107
6.44250011 8.63325024 -0.05200000 192 198 214 21025
6.44299984 8.63374996 -0.05150000 192 198 214 20789
6.44250011 8.63299942 -0.05100000 192 198 214 21267
6.44199991 8.63224983 -0.05050000 192 198 214 20557
6.44250011 8.63325024 -0.05000000 195 204 219 20478
6.44250011 8.63299942 -0.04950000 195 204 219 20328
6.44175005 8.63199997 -0.04900000 195 204 219 20182
6.44199991 8.63224983 -0.04850000 195 204 219 20035
6.44149971 8.63199997 -0.04800000 195 204 219 20257
6.44149971 8.63175011 -0.04700000 195 204 219 19964
6.44149971 8.63175011 -0.04550000 195 207 219 21271
6.44075012 8.63074970 -0.04225000 195 207 219 22210
6.44124985 8.63150024 -0.04175000 195 207 219 21857
6.44024992 8.63000011 -0.04075000 196 208 220 20635
6.44099998 8.63100052 -0.04025000 196 208 220 19892
6.43924999 8.62899971 -0.03525000 195 203 214 19471
6.43974972 8.62949944 -0.03475000 195 203 214 19610
6.43924999 8.62874985 -0.03425000 195 203 214 19614
6.43875027 8.62825012 -0.03275000 195 203 214 19753
6.43849993 8.62775040 -0.03025000 205 209 221 20110
6.43849993 8.62775040 -0.03075000 205 209 221 20714
6.43849993 8.62750053 -0.02925000 205 209 221 20792
6.43849993 8.62800026 -0.02875000 205 209 221 21435
6.43924999 8.62874985 -0.02825000 205 209 221 21110
6.43900013 8.62849998 -0.02725000 211 211 223 20789
6.43825006 8.62750053 -0.02625000 211 211 223 20482
6.43875027 8.62800026 -0.02525000 211 211 223 20714
6.43750000 8.62650013 -0.02475000 211 211 223 20332
6.43799973 8.62699986 -0.02425000 211 211 223 20185
6.43725014 8.62625027 -0.02375000 211 211 223 20792
6.43774986 8.62699986 -0.02325000 211 211 223 20871
6.43774986 8.62674999 -0.02275000 206 204 217 20714
6.43750000 8.62625027 -0.02225000 206 204 217 19896
6.43750000 8.62650013 -0.02175000 206 204 217 19682
6.43700027 8.62574959 -0.01925000 206 204 217 18942
6.43700027 8.62574959 -0.01725000 209 207 220 18685
6.43650007 8.62500000 -0.01675000 209 207 220 18625
6.43599987 8.62450027 -0.01625000 209 207 220 18135
6.43674994 8.62549973 -0.01575000 209 207 220 17957
6.43700027 8.62574959 -0.01525000 209 207 220 17071
6.43650007 8.62500000 -0.01475000 209 207 220 16410
6.43650007 8.62500000 -0.01325000 217 217 227 11425
6.43550014 8.62374973 -0.01275000 217 217 227 9471
6.43525028 8.62349987 -0.00950000 186 189 198 2350
6.43475008 8.62275028 -0.00850000 186 189 198 1685
6.43449974 8.62249947 -0.00750000 186 189 198 1417
6.43499994 8.62325001 -0.00500000 132 135 144 1467
6.43400002 8.62174988 -0.00350000 132 135 144 1832
6.43424988 8.62224960 -0.00200000 132 135 144 3871
6.43350029 8.62100029 -0.00150000 132 135 144 5053
6.43350029 8.62100029 -0.00100000 132 135 144 7053
6.43449974 8.62224960 -0.00050000 142 145 154 9439
6.43350029 8.62100029 0.00025000 142 145 154 14367
6.43375015 8.62150002 0.00075000 142 145 154 15896
6.43300009 8.62024975 0.00175000 142 145 154 18564
6.43274975 8.61999989 0.00275000 142 145 154 20264
6.43375015 8.62150002 0.00325000 142 145 154 20717
6.43350029 8.62100029 0.00375000 188 186 197 20564
6.43324995 8.62075043 0.00625000 188 186 197 21032
6.43300009 8.62050056 0.00675000 188 186 197 20717
6.43249989 8.61975002 0.00775000 188 186 197 19275
6.43225002 8.61925030 0.00825000 222 214 225 19139
6.43249989 8.61975002 0.00975000 222 214 225 18750
6.43225002 8.61925030 0.01025000 222 214 225 19139
6.43175030 8.61849976 0.01075000 222 214 225 18750
6.43149996 8.61849976 0.01125000 222 214 225 19007
6.43200016 8.61899948 0.01175000 222 214 225 18878
6.43149996 8.61824989 0.01225000 222 214 225 19139
6.43125010 8.61800003 0.01325000 218 208 219 19410
6.43074989 8.61750031 0.01425000 218 208 219 19342
6.43074989 8.61725044 0.01475000 218 208 219 19757
6.43099976 8.61775017 0.01625000 218 208 219 21278
6.43074989 8.61750031 0.01675000 218 208 219 21278
6.43099976 8.61775017 0.01775000 212 200 212 20796
6.43074989 8.61725044 0.01825000 212 200 212 20564
6.42974997 8.61625004 0.02025000 212 200 212 21035
6.43025017 8.61674976 0.02075000 212 200 212 21035
6.43025017 8.61649990 0.02125000 212 200 212 21035
6.42999983 8.61625004 0.02175000 219 211 224 20642
6.42950010 8.61549950 0.02300000 219 211 224 20489
6.42950010 8.61549950 0.02350000 219 211 224 20339
6.42950010 8.61575031 0.02400000 219 211 224 20117
6.42999983 8.61625004 0.02500000 219 211 224 19278
6.42875004 8.61474991 0.02600000 219 211 224 19410
6.42950010 8.61549950 0.02650000 218 220 232 20117
6.42850018 8.61450005 0.02700000 218 220 232 20267
6.42924976 8.61549950 0.02750000 218 220 232 19971
6.42899990 8.61499977 0.02800000 218 220 232 20878
6.42875004 8.61474991 0.02900000 218 220 232 20878
6.42875004 8.61474991 0.03050000 218 220 232 21278
6.42850018 8.61425018 0.03150000 206 216 225 20567
6.42850018 8.61425018 0.03200000 206 216 225 20339
6.42799997 8.61375046 0.03250000 206 216 225 20642
6.42824984 8.61400032 0.03300000 206 216 225 21117
6.42850018 8.61425018 0.03400000 206 216 225 21278
6.42850018 8.61425018 0.03450000 206 216 225 21200
6.42799997 8.61375046 0.03500000 206 216 225 20800
6.42724991 8.61275005 0.03550000 202 220 224 20489
6.42724991 8.61250019 0.03600000 202 220 224 20567
6.42724991 8.61275005 0.03650000 202 220 224 20046
6.42775011 8.61350060 0.03700000 202 220 224 19550
6.42799997 8.61350060 0.03750000 202 220 224 19210
6.42724991 8.61250019 0.03900000 202 220 224 19010
6.42749977 8.61299992 0.03950000 202 220 224 20192
6.42724991 8.61275005 0.04100000 197 213 212 21200
6.42700005 8.61250019 0.04200000 197 213 212 20121
6.42649984 8.61174965 0.04250000 197 213 212 19975
6.42624998 8.61149979 0.04300000 197 213 212 19832
6.42574978 8.61075020 0.04350000 197 213 212 19760
6.42624998 8.61124992 0.04450000 215 218 211 19903
6.42549992 8.61050034 0.04550000 215 218 211 18200
6.42574978 8.61075020 0.04600000 215 218 211 16764
6.42574978 8.61050034 0.04700000 215 218 211 11200
6.42574978 8.61075020 0.04750000 215 218 211 8217
6.42600012 8.61100006 0.04800000 215 218 211 5696
6.44500017 8.63549995 -0.06050000 127 117 141 14825
6.44525003 8.63574982 -0.06000000 127 117 141 16857
6.44474983 8.63500023 -0.05950000 127 117 141 18557
6.44474983 8.63525009 -0.05850000 169 167 188 20253
6.44400024 8.63399982 -0.05800000 169 167 188 20946
6.44425011 8.63450050 -0.05750000 169 167 188 20946
6.44400024 8.63399982 -0.05700000 169 167 188 21189
6.44449997 8.63475037 -0.05650000 169 167 188 21267
6.44400024 8.63424969 -0.05600000 169 167 188 20867
6.44324970 8.63325024 -0.05550000 169 167 188 20710
6.44324970 8.63325024 -0.05350000 192 198 214 20110
6.44350004 8.63325024 -0.05300000 192 198 214 20710
6.44324970 8.63325024 -0.05250000 192 198 214 21025
6.44274998 8.63249969 -0.05200000 192 198 214 21857
6.44250011 8.63224983 -0.05150000 192 198 214 21517
6.44274998 8.63249969 -0.05100000 192 198 214 21435
6.44250011 8.63199997 -0.05025000 192 198 214 20946
6.44299984 8.63274956 -0.04975000 195 204 219 21028
6.44225025 8.63175011 -0.04925000 195 204 219 20710
6.44299984 8.63274956 -0.04850000 195 204 219 20867
6.44225025 8.63199997 -0.04800000 195 204 219 20407
6.44199991 8.63150024 -0.04750000 195 204 219 20710
6.44250011 8.63224983 -0.04700000 195 204 219 21028
6.44175005 8.63125038 -0.04650000 195 204 219 20710
6.44250011 8.63224983 -0.04600000 195 204 219 21028
6.44175005 8.63125038 -0.04500000 195 207 219 21771
6.44199991 8.63150024 -0.04550000 195 207 219 21689
6.44225025 8.63199997 -0.04400000 195 207 219 22389
6.44149971 8.63074970 -0.04350000 195 207 219 22389
6.44149971 8.63100052 -0.04275000 195 207 219 22571
6.44175005 8.63125038 -0.04225000 195 207 219 22210
6.44124985 8.63049984 -0.04075000 196 208 220 20407
6.44099998 8.63024998 -0.04025000 196 208 220 19610
6.44149971 8.63074970 -0.03975000 196 208 220 19271
6.44050026 8.62949944 -0.03925000 196 208 220 18939
6.44024992 8.62924957 -0.03825000 196 208 220 19200
6.44000006 8.62899971 -0.03725000 196 208 220 18685
6.44050026 8.62949944 -0.03675000 196 208 220 18746
6.44024992 8.62924957 -0.03625000 195 203 214 19003
6.44024992 8.62924957 -0.03575000 195 203 214 19403
6.43974972 8.62849998 -0.03525000 195 203 214 19753
6.44000006 8.62874985 -0.03475000 195 203 214 19753
6.43974972 8.62849998 -0.03375000 195 203 214 20410
6.43949986 8.62825012 -0.03075000 205 209 221 20332
6.43924999 8.62775040 -0.02925000 205 209 221 21353
6.43900013 8.62750053 -0.02875000 205 209 221 21353
6.43974972 8.62849998 -0.02825000 205 209 221 21110
6.43875027 8.62724972 -0.02775000 205 209 221 21271
6.43875027 8.62724972 -0.02675000 211 211 223 21028
6.43900013 8.62750053 -0.02625000 211 211 223 20714
6.43875027 8.62699986 -0.02575000 211 211 223 21110
6.43900013 8.62750053 -0.02425000 211 211 223 20560
6.43849993 8.62699986 -0.02375000 211 211 223 20871
6.43825006 8.62650013 -0.02325000 211 211 223 20714
6.43849993 8.62699986 -0.02275000 206 204 217 20482
6.43825006 8.62650013 -0.02225000 206 204 217 19821
6.43849993 8.62699986 -0.02175000 206 204 217 19821
6.43849993 8.62674999 -0.02100000 206 204 217 20114
6.43774986 8.62599945 -0.02050000 206 204 217 19403
6.43750000 8.62549973 -0.02000000 206 204 217 19135
6.43750000 8.62524986 -0.01950000 206 204 217 19203
6.43700027 8.62500000 -0.01900000 206 204 217 19271
6.43774986 8.62599945 -0.01850000 209 207 220 19475
6.43700027 8.62475014 -0.01600000 209 207 220 18878
6.43650007 8.62425041 -0.01550000 209 207 220 18314
6.43725014 8.62500000 -0.01500000 209 207 220 18014
6.43624973 8.62400055 -0.01450000 209 207 220 16860
6.43624973 8.62374973 -0.01200000 217 217 227 9082
6.43599987 8.62349987 -0.00850000 186 189 198 1867
6.43599987 8.62349987 -0.00750000 186 189 198 1510
6.43499994 8.62199974 -0.00600000 186 189 198 1375
6.43525028 8.62249947 -0.00350000 132 135 144 2528
6.43475008 8.62174988 -0.00300000 132 135 144 3242
6.43424988 8.62100029 -0.00250000 132 135 144 4528
6.43424988 8.62100029 -0.00200000 132 135 144 6450
6.43400002 8.62075043 -0.00100000 132 135 144 10739
6.43449974 8.62150002 -0.00050000 142 145 154 13296
6.43350029 8.62024975 0.00075000 142 145 154 18017
6.43400002 8.62075043 0.00125000 142 145 154 19617
6.43400002 8.62100029 0.00175000 142 145 154 19967
6.43350029 8.62024975 0.00225000 142 145 154 20953
6.43449974 8.62125015 0.00275000 142 145 154 20953
6.43400002 8.62075043 0.00325000 142 145 154 20564
6.43324995 8.61975002 0.00375000 188 186 197 21114
6.43350029 8.62024975 0.00425000 188 186 197 20953
6.43350029 8.61999989 0.00525000 188 186 197 21610
6.43300009 8.61950016 0.00575000 188 186 197 22039
6.43300009 8.61950016 0.00675000 188 186 197 20717
6.43300009 8.61925030 0.00775000 188 186 197 19971
6.43225002 8.61849976 0.00825000 222 214 225 20189
6.43274975 8.61925030 0.00875000 222 214 225 19757
6.43274975 8.61899948 0.00925000 222 214 225 19971
6.43225002 8.61824989 0.00975000 222 214 225 20042
6.43225002 8.61824989 0.01025000 222 214 225 19757
6.43225002 8.61849976 0.01075000 222 214 225 19971
6.43200016 8.61824989 0.01150000 222 214 225 19971
6.43175030 8.61775017 0.01250000 222 214 225 19689
6.43225002 8.61849976 0.01300000 218 208 219 19828
6.43175030 8.61750031 0.01350000 218 208 219 19971
6.43175030 8.61775017 0.01400000 218 208 219 19971
6.43125010 8.61725044 0.01450000 218 208 219 20264
6.43149996 8.61725044 0.01475000 218 208 219 20414
6.43200016 8.61824989 0.01525000 218 208 219 20642
6.43149996 8.61725044 0.01575000 218 208 219 21114
6.43149996 8.61750031 0.01700000 218 208 219 20796
6.43175030 8.61775017 0.01800000 212 200 212 20796
6.43125010 8.61700058 0.01850000 212 200 212 20796
6.43125010 8.61725044 0.01900000 212 200 212 20878
6.43125010 8.61725044 0.01950000 212 200 212 21278
6.43074989 8.61625004 0.02000000 212 200 212 21117
6.43050003 8.61625004 0.02050000 212 200 212 20796
6.43025017 8.61575031 0.02200000 219 211 224 20567
6.43050003 8.61625004 0.02250000 219 211 224 20414
6.43074989 8.61649990 0.02350000 219 211 224 19617
6.43025017 8.61575031 0.02400000 219 211 224 19550
6.42999983 8.61524963 0.02450000 219 211 224 19689
6.43025017 8.61575031 0.02500000 219 211 224 19828
6.42950010 8.61474991 0.02550000 219 211 224 20192
6.43025017 8.61600018 0.02600000 219 211 224 20264
6.42899990 8.61425018 0.02650000 218 220 232 19971
6.42999983 8.61549950 0.02700000 218 220 232 20264
6.42924976 8.61450005 0.02900000 218 220 232 21117
6.42950010 8.61474991 0.02950000 218 220 232 21528
6.42950010 8.61450005 0.03000000 218 220 232 21442
6.42924976 8.61450005 0.03050000 218 220 232 21360
6.42924976 8.61450005 0.03100000 206 216 225 20721
6.42824984 8.61324978 0.03150000 206 216 225 20046
6.42875004 8.61375046 0.03200000 206 216 225 20417
6.42875004 8.61375046 0.03300000 206 216 225 21035
6.42899990 8.61425018 0.03350000 206 216 225 21278
6.42850018 8.61350060 0.03400000 206 216 225 21360
6.42824984 8.61299992 0.03500000 206 216 225 20957
6.42850018 8.61350060 0.03550000 202 220 224 20800
6.42824984 8.61324978 0.03600000 202 220 224 20192
6.42850018 8.61350060 0.03650000 202 220 224 20117
6.42775011 8.61225033 0.03700000 202 220 224 19828
6.42799997 8.61275005 0.03750000 202 220 224 19346
6.42700005 8.61149979 0.03850000 202 220 224 19210
6.42749977 8.61199951 0.03950000 197 213 212 20567
6.42775011 8.61225033 0.04100000 197 213 212 20800
6.42724991 8.61174965 0.04200000 197 213 212 20646
6.42724991 8.61174965 0.04400000 215 218 211 20046
6.42675018 8.61124992 0.04450000 215 218 211 20267
6.42675018 8.61100006 0.04550000 215 218 211 18753
6.42675018 8.61100006 0.04650000 215 218 211 14753
6.42649984 8.61100006 0.04700000 215 218 211 12050
6.44500017 8.63500023 -0.06150000 127 117 141 9353
6.44500017 8.63475037 -0.06100000 127 117 141 12450
6.44549990 8.63549995 -0.06050000 127 117 141 14900
6.44500017 8.63475037 -0.05900000 169 167 188 19000
6.44425011 8.63374996 -0.05850000 169 167 188 20182
6.44425011 8.63374996 -0.05800000 169 167 188 20257
6.44500017 8.63475037 -0.05700000 169 167 188 21107
6.44449997 8.63424969 -0.05650000 169 167 188 21432
6.44374990 8.63299942 -0.05600000 169 167 188 21025
6.44350004 8.63299942 -0.05550000 169 167 188 20557
6.44400024 8.63350010 -0.05450000 192 198 214 20182
6.44350004 8.63274956 -0.05350000 192 198 214 20328
6.44374990 8.63325024 -0.05250000 192 198 214 21189
6.44324970 8.63224983 -0.05150000 192 198 214 21517
6.44374990 8.63325024 -0.05100000 192 198 214 21517
6.44350004 8.63274956 -0.05000000 195 204 219 21350
6.44324970 8.63249969 -0.04950000 195 204 219 21028
6.44274998 8.63199997 -0.04900000 195 204 219 20789
6.44274998 8.63175011 -0.04700000 195 204 219 20946
6.44274998 8.63175011 -0.04600000 195 204 219 21028
6.44225025 8.63125038 -0.04550000 195 207 219 21189
6.44274998 8.63199997 -0.04500000 195 207 219 21350
6.44175005 8.63049984 -0.04400000 195 207 219 21946
6.44199991 8.63074970 -0.04350000 195 207 219 22296
6.44250011 8.63125038 -0.04200000 195 207 219 21435
6.44149971 8.63024998 -0.04150000 195 207 219 20789
6.44199991 8.63074970 -0.04100000 196 208 220 20035
6.44099998 8.62949944 -0.04050000 196 208 220 19610
6.44124985 8.62975025 -0.04000000 196 208 220 18557
6.44099998 8.62949944 -0.03775000 196 208 220 18746
6.44149971 8.63000011 -0.03675000 196 208 220 18939
6.44099998 8.62949944 -0.03575000 195 203 214 19610
6.44124985 8.62975025 -0.03525000 195 203 214 19610
6.44024992 8.62849998 -0.03475000 195 203 214 19964
6.44075012 8.62924957 -0.03375000 195 203 214 20332
6.44075012 8.62924957 -0.03425000 195 203 214 20714
6.44075012 8.62924957 -0.03325000 195 203 214 20185
6.43974972 8.62775040 -0.03225000 195 203 214 19964
6.44075012 8.62899971 -0.03175000 205 209 221 20257
6.44000006 8.62800026 -0.03075000 205 209 221 19964
6.43974972 8.62775040 -0.03025000 205 209 221 20185
6.43949986 8.62750053 -0.02975000 205 209 221 20482
6.43974972 8.62775040 -0.02925000 205 209 221 21028
6.43924999 8.62724972 -0.02825000 205 209 221 21192
6.43924999 8.62699986 -0.02775000 205 209 221 20950
6.43900013 8.62674999 -0.02725000 211 211 223 21353
6.43875027 8.62650013 -0.02675000 211 211 223 20792
6.43924999 8.62699986 -0.02575000 211 211 223 20714
6.43900013 8.62674999 -0.02525000 211 211 223 20332
6.43825006 8.62574959 -0.02425000 211 211 223 20792
6.43900013 8.62674999 -0.02475000 211 211 223 20714
6.43900013 8.62674999 -0.02375000 211 211 223 20560
6.43875027 8.62650013 -0.02325000 211 211 223 20560
6.43849993 8.62599945 -0.02275000 206 204 217 20410
6.43900013 8.62674999 -0.02175000 206 204 217 20039
6.43774986 8.62524986 -0.02125000 206 204 217 19614
6.43799973 8.62549973 -0.02075000 206 204 217 19753
6.43799973 8.62524986 -0.02025000 206 204 217 19203
6.43774986 8.62500000 -0.01925000 206 204 217 19475
6.43750000 8.62475014 -0.01875000 206 204 217 19896
6.43725014 8.62450027 -0.01825000 209 207 220 19753
6.43774986 8.62500000 -0.01775000 209 207 220 19753
6.43799973 8.62549973 -0.01725000 209 207 220 19753
6.43725014 8.62425041 -0.01675000 209 207 220 19475
6.43700027 8.62425041 -0.01575000 209 207 220 18878
6.43674994 8.62349987 -0.01500000 209 207 220 18625
6.43750000 8.62475014 -0.01425000 217 217 227 16410
6.43725014 8.62450027 -0.01225000 217 217 227 11357
6.43599987 8.62300014 -0.01125000 217 217 227 7217
6.43624973 8.62325001 -0.01075000 217 217 227 5414
6.43650007 8.62349987 -0.00925000 186 189 198 2678
6.43550014 8.62199974 -0.00650000 186 189 198 1425
6.43624973 8.62300014 -0.00550000 186 189 198 1510
6.43525028 8.62174988 -0.00350000 132 135 144 2925
6.43499994 8.62150002 -0.00300000 132 135 144 3982
6.43525028 8.62174988 -0.00250000 132 135 144 5560
6.43475008 8.62100029 -0.00200000 132 135 144 7314
6.43475008 8.62100029 -0.00050000 142 145 154 14478
6.43449974 8.62075043 0.00000000 142 145 154 15757
6.43449974 8.62075043 0.00025000 142 145 154 17339
6.43449974 8.62075043 0.00075000 142 145 154 18814
6.43449974 8.62075043 0.00125000 142 145 154 19207
6.43400002 8.62024975 0.00175000 142 145 154 20335
6.43424988 8.62050056 0.00225000 142 145 154 20953
6.43424988 8.62050056 0.00325000 142 145 154 20796
6.43350029 8.61950016 0.00375000 188 186 197 20717
6.43424988 8.62050056 0.00525000 188 186 197 21864
6.43350029 8.61925030 0.00575000 188 186 197 22396
6.43324995 8.61925030 0.00675000 188 186 197 21035
6.43375015 8.61975002 0.00725000 188 186 197 20717
6.43350029 8.61925030 0.00875000 222 214 225 20042
6.43350029 8.61950016 0.00975000 222 214 225 20564
6.43324995 8.61925030 0.01025000 222 214 225 20642
6.43249989 8.61824989 0.01075000 222 214 225 20414
6.43274975 8.61824989 0.01125000 222 214 225 20796
6.43274975 8.61849976 0.01175000 222 214 225 20564
6.43249989 8.61800003 0.01225000 222 214 225 20796
6.43225002 8.61775017 0.01325000 218 208 219 20642
6.43225002 8.61775017 0.01375000 218 208 219 20264
6.43200016 8.61725044 0.01425000 218 208 219 20339
6.43149996 8.61674976 0.01475000 218 208 219 20489
6.43249989 8.61800003 0.01575000 218 208 219 20335
6.43225002 8.61775017 0.01675000 218 208 219 20564
6.43225002 8.61775017 0.01725000 212 200 212 20953
6.43149996 8.61674976 0.01825000 212 200 212 20642
6.43175030 8.61700058 0.01925000 212 200 212 21196
6.43125010 8.61625004 0.02025000 212 200 212 20721
6.43050003 8.61524963 0.02125000 212 200 212 20192
6.43099976 8.61600018 0.02175000 219 211 224 20564
6.43025017 8.61499977 0.02225000 219 211 224 20414
6.43074989 8.61575031 0.02300000 219 211 224 20117
6.43099976 8.61600018 0.02350000 219 211 224 19971
6.43025017 8.61499977 0.02450000 219 211 224 19617
6.43050003 8.61549950 0.02550000 219 211 224 20046
6.42999983 8.61474991 0.02700000 218 220 232 19760
6.42974997 8.61450005 0.02800000 218 220 232 20567
6.42950010 8.61375046 0.02850000 218 220 232 21117
6.42999983 8.61450005 0.02950000 218 220 232 21035
6.42924976 8.61350060 0.03000000 218 220 232 20878
6.42899990 8.61324978 0.03050000 218 220 232 20267
6.42899990 8.61350060 0.03100000 206 216 225 19760
6.42850018 8.61275005 0.03200000 206 216 225 20046
6.42924976 8.61375046 0.03250000 206 216 225 20192
6.42824984 8.61250019 0.03300000 206 216 225 20878
6.42875004 8.61324978 0.03350000 206 216 225 20642
6.42875004 8.61299992 0.03400000 206 216 225 20721
6.42875004 8.61299992 0.03450000 206 216 225 20878
6.42899990 8.61324978 0.03650000 202 220 224 19828
6.42850018 8.61275005 0.03800000 202 220 224 19410
6.42824984 8.61225033 0.03950000 202 220 224 20800
6.42749977 8.61124992 0.04100000 197 213 212 21039
6.42799997 8.61199951 0.04150000 197 213 212 20192
6.42775011 8.61174965 0.04200000 197 213 212 21200
6.42775011 8.61174965 0.04300000 197 213 212 20957
6.42724991 8.61100006 0.04350000 197 213 212 20267
6.42724991 8.61075020 0.04400000 197 213 212 20339
6.42700005 8.61075020 0.04450000 215 218 211 19975
6.42749977 8.61124992 0.04500000 215 218 211 19903
6.42724991 8.61075020 0.04600000 215 218 211 17621
6.42649984 8.61025047 0.04650000 215 218 211 15035
6.42675018 8.61025047 0.04800000 215 218 211 6585
6.44624996 8.63549995 -0.06150000 127 117 141 10257
6.44575024 8.63475037 -0.06050000 127 117 141 14942
6.44525003 8.63424969 -0.06000000 127 117 141 16214
6.44474983 8.63374996 -0.05950000 127 117 141 17067
6.44500017 8.63374996 -0.05900000 169 167 188 18367
6.44474983 8.63350010 -0.05850000 169 167 188 19539
6.44474983 8.63350010 -0.05800000 169 167 188 20328
6.44474983 8.63374996 -0.05700000 169 167 188 21603
6.44549990 8.63450050 -0.05650000 169 167 188 21771
6.44425011 8.63299942 -0.05600000 169 167 188 20867
6.44374990 8.63249969 -0.05300000 192 198 214 20635
6.44449997 8.63325024 -0.05250000 192 198 214 21189
6.44400024 8.63274956 -0.05200000 192 198 214 21189
6.44400024 8.63249969 -0.05150000 192 198 214 21685
6.44425011 8.63299942 -0.05100000 192 198 214 22207
6.44374990 8.63199997 -0.05050000 192 198 214 21771
6.44400024 8.63249969 -0.05000000 195 204 219 21685
6.44374990 8.63199997 -0.04950000 195 204 219 21857
6.44400024 8.63274956 -0.04900000 195 204 219 21350
6.44299984 8.63125038 -0.04750000 195 204 219 20789
6.44274998 8.63100052 -0.04700000 195 204 219 21028
6.44299984 8.63125038 -0.04650000 195 204 219 21189
6.44274998 8.63074970 -0.04425000 195 207 219 21271
6.44225025 8.63024998 -0.04325000 195 207 219 22482
6.44274998 8.63100052 -0.04275000 195 207 219 21857
6.44199991 8.62975025 -0.04175000 195 207 219 20789
6.44199991 8.62975025 -0.04125000 195 207 219 20714
6.44149971 8.62924957 -0.03975000 196 208 220 19271
6.44124985 8.62874985 -0.03625000 195 203 214 19682
6.44075012 8.62825012 -0.03575000 195 203 214 19403
6.44099998 8.62849998 -0.03525000 195 203 214 19964
6.44050026 8.62800026 -0.03475000 195 203 214 20332
6.44075012 8.62800026 -0.03425000 195 203 214 20482
6.44050026 8.62800026 -0.03325000 195 203 214 20257
6.44099998 8.62874985 -0.03175000 205 209 221 20407
6.44075012 8.62825012 -0.03125000 205 209 221 19335
6.44000006 8.62699986 -0.03025000 205 209 221 20039
6.44000006 8.62699986 -0.02925000 205 209 221 21521
6.44000006 8.62724972 -0.02875000 205 209 221 21189
6.43949986 8.62674999 -0.02675000 211 211 223 20110
6.43974972 8.62674999 -0.02625000 211 211 223 20332
6.43924999 8.62625027 -0.02475000 211 211 223 20792
6.43900013 8.62574959 -0.02400000 211 211 223 20410
6.43924999 8.62599945 -0.02350000 211 211 223 20332
6.43875027 8.62549973 -0.02300000 206 204 217 19967
6.43900013 8.62599945 -0.02250000 206 204 217 19542
6.43900013 8.62599945 -0.02200000 206 204 217 19821
6.43825006 8.62475014 -0.02000000 206 204 217 19475
6.43849993 8.62524986 -0.01950000 206 204 217 19896
6.43900013 8.62574959 -0.01900000 206 204 217 19821
6.43875027 8.62549973 -0.01875000 209 207 220 20185
6.43875027 8.62549973 -0.01825000 209 207 220 20260
6.43849993 8.62524986 -0.01700000 209 207 220 20410
6.43774986 8.62425041 -0.01650000 209 207 220 20114
6.43799973 8.62450027 -0.01600000 209 207 220 18942
6.43774986 8.62425041 -0.01550000 209 207 220 19135
6.43725014 8.62349987 -0.01450000 209 207 220 18192
6.43750000 8.62400055 -0.01350000 217 217 227 16221
6.43700027 8.62325001 -0.01250000 217 217 227 14289
6.43674994 8.62300014 -0.01150000 217 217 227 11014
6.43674994 8.62275028 -0.01100000 217 217 227 8792
6.43650007 8.62275028 -0.01050000 217 217 227 7124
6.43674994 8.62275028 -0.01000000 217 217 227 5667
6.43674994 8.62300014 -0.00950000 186 189 198 4160
6.43700027 8.62300014 -0.00800000 186 189 198 2325
6.43525028 8.62100029 -0.00450000 132 135 144 2450
6.43525028 8.62075043 -0.00350000 132 135 144 4446
6.43499994 8.62050056 -0.00200000 132 135 144 10910
6.43575001 8.62174988 -0.00150000 132 135 144 13296
6.43475008 8.62024975 -0.00100000 132 135 144 14989
6.43575001 8.62150002 -0.00050000 142 145 154 16557
6.43499994 8.62050056 0.00000000 142 145 154 17617
6.43449974 8.61999989 0.00025000 142 145 154 18878
6.43499994 8.62050056 0.00125000 142 145 154 20189
6.43550014 8.62100029 0.00175000 142 145 154 20875
6.43449974 8.61999989 0.00425000 188 186 197 21692
6.43449974 8.61975002 0.00525000 188 186 197 21778
6.43449974 8.61999989 0.00575000 188 186 197 21950
6.43400002 8.61925030 0.00625000 188 186 197 21692
6.43375015 8.61899948 0.00725000 188 186 197 21525
6.43400002 8.61925030 0.00775000 188 186 197 20953
6.43375015 8.61899948 0.00850000 222 214 225 20796
6.43400002 8.61899948 0.00925000 222 214 225 20875
6.43350029 8.61849976 0.00975000 222 214 225 20564
6.43375015 8.61874962 0.01025000 222 214 225 20642
6.43274975 8.61750031 0.01075000 222 214 225 21196
6.43249989 8.61725044 0.01125000 222 214 225 21953
6.43324995 8.61824989 0.01225000 222 214 225 21114
6.43249989 8.61700058 0.01275000 218 208 219 20264
6.43225002 8.61674976 0.01375000 218 208 219 20117
6.43300009 8.61800003 0.01450000 218 208 219 20189
6.43225002 8.61674976 0.01500000 218 208 219 20264
6.43225002 8.61674976 0.01550000 218 208 219 20189
6.43274975 8.61725044 0.01600000 218 208 219 20414
6.43249989 8.61700058 0.01650000 218 208 219 20564
6.43249989 8.61725044 0.01700000 218 208 219 20953
6.43225002 8.61674976 0.01800000 212 200 212 20564
6.43200016 8.61649990 0.01900000 212 200 212 21278
6.43149996 8.61575031 0.02000000 212 200 212 20878
6.43149996 8.61575031 0.02050000 212 200 212 20192
6.43149996 8.61575031 0.02100000 212 200 212 20642
6.43099976 8.61524963 0.02150000 212 200 212 20264
6.43175030 8.61600018 0.02200000 219 211 224 20564
6.43175030 8.61625004 0.02250000 219 211 224 20264
6.43125010 8.61549950 0.02300000 219 211 224 19550
6.43099976 8.61499977 0.02450000 219 211 224 19478
6.43050003 8.61450005 0.02500000 219 211 224 19478
6.43074989 8.61474991 0.02550000 219 211 224 19410
6.43074989 8.61474991 0.02600000 219 211 224 19617
6.43025017 8.61400032 0.02650000 218 220 232 19828
6.43099976 8.61524963 0.02700000 218 220 232 19903
6.42999983 8.61400032 0.02750000 218 220 232 20117
6.43025017 8.61425018 0.02850000 218 220 232 20567
6.43025017 8.61425018 0.03100000 206 216 225 19617
6.42974997 8.61350060 0.03150000 206 216 225 20192
6.42924976 8.61275005 0.03200000 206 216 225 20339
6.42950010 8.61324978 0.03300000 206 216 225 20642
6.42950010 8.61324978 0.03350000 206 216 225 20267
6.42950010 8.61324978 0.03400000 206 216 225 20489
6.42899990 8.61250019 0.03450000 206 216 225 20646
6.42924976 8.61275005 0.03500000 206 216 225 20567
6.42950010 8.61299992 0.03550000 202 220 224 20800
6.42899990 8.61250019 0.03600000 202 220 224 20121
6.42924976 8.61275005 0.03650000 202 220 224 19971
6.42875004 8.61225033 0.03700000 202 220 224 19828
6.42799997 8.61124992 0.03850000 202 220 224 19482
6.42850018 8.61174965 0.03900000 202 220 224 19760
6.42899990 8.61225033 0.03950000 197 213 212 20339
6.42850018 8.61199951 0.04050000 197 213 212 20878
6.42724991 8.61025047 0.04150000 197 213 212 20800
6.42724991 8.61025047 0.04350000 197 213 212 20121
6.42749977 8.61025047 0.04400000 215 218 211 20417
6.42775011 8.61075020 0.04450000 215 218 211 20121
6.42775011 8.61075020 0.04500000 215 218 211 20339
6.42775011 8.61075020 0.04600000 215 218 211 17564
6.42675018 8.60949993 0.04700000 215 218 211 12378
6.42700005 8.60974979 0.04750000 215 218 211 9621
6.44624996 8.63450050 -0.06150000 127 117 141 10089
6.44649982 8.63500023 -0.06050000 127 117 141 14399
6.44600010 8.63450050 -0.06000000 127 117 141 15839
6.44549990 8.63374996 -0.05850000 169 167 188 19471
6.44549990 8.63350010 -0.05800000 169 167 188 20710
6.44600010 8.63424969 -0.05750000 169 167 188 21685
6.44549990 8.63374996 -0.05600000 169 167 188 20785
6.44525003 8.63350010 -0.05550000 169 167 188 20182
6.44449997 8.63249969 -0.05400000 192 198 214 19539
6.44474983 8.63274956 -0.05250000 192 198 214 20328
6.44474983 8.63274956 -0.05200000 192 198 214 21025
6.44425011 8.63199997 -0.05150000 192 198 214 21685
6.44449997 8.63224983 -0.05050000 192 198 214 21771
6.44474983 8.63249969 -0.05000000 195 204 219 21517
6.44374990 8.63150024 -0.04900000 195 204 219 21267
6.44350004 8.63100052 -0.04850000 195 204 219 21267
6.44425011 8.63199997 -0.04800000 195 204 219 21350
6.44400024 8.63175011 -0.04750000 195 204 219 21435
6.44374990 8.63125038 -0.04600000 195 204 219 20867
6.44274998 8.63000011 -0.04500000 195 207 219 20946
6.44374990 8.63125038 -0.04400000 195 207 219 21107
6.44274998 8.63000011 -0.04350000 195 207 219 21603
6.44250011 8.63000011 -0.04250000 195 207 219 21350
6.44225025 8.62924957 -0.04200000 195 207 219 20946
6.44274998 8.63000011 -0.04075000 196 208 220 19682
6.44199991 8.62899971 -0.04025000 196 208 220 19892
6.44250011 8.62975025 -0.03975000 196 208 220 19610
6.44250011 8.62975025 -0.03875000 196 208 220 19271
6.44124985 8.62825012 -0.03675000 196 208 220 19610
6.44199991 8.62899971 -0.03625000 195 203 214 19610
6.44124985 8.62825012 -0.03575000 195 203 214 19610
6.44225025 8.62924957 -0.03525000 195 203 214 20185
6.44199991 8.62899971 -0.03375000 195 203 214 20110
6.44099998 8.62750053 -0.03275000 195 203 214 19682
6.44050026 8.62699986 -0.03125000 205 209 221 19821
6.44050026 8.62699986 -0.03075000 205 209 221 19475
6.44024992 8.62674999 -0.03025000 205 209 221 19896
6.44050026 8.62699986 -0.02975000 205 209 221 20185
6.44050026 8.62724972 -0.02925000 205 209 221 20039
6.44075012 8.62750053 -0.02875000 205 209 221 20410
6.44050026 8.62699986 -0.02825000 205 209 221 20110
6.43974972 8.62599945 -0.02675000 211 211 223 19821
6.44000006 8.62625027 -0.02475000 211 211 223 20332
6.43924999 8.62549973 -0.02425000 211 211 223 20482
6.43974972 8.62599945 -0.02375000 211 211 223 20560
6.43924999 8.62524986 -0.02275000 206 204 217 19821
6.43900013 8.62524986 -0.02225000 206 204 217 19542
6.43949986 8.62574959 -0.02175000 206 204 217 19614
6.43949986 8.62574959 -0.02125000 206 204 217 20185
6.43875027 8.62475014 -0.02075000 206 204 217 19614
6.43875027 8.62475014 -0.01975000 206 204 217 19542
6.43924999 8.62524986 -0.01925000 206 204 217 19614
6.43924999 8.62524986 -0.01875000 206 204 217 19821
6.43799973 8.62374973 -0.01725000 209 207 220 20639
6.43849993 8.62425041 -0.01675000 209 207 220 20260
6.43875027 8.62450027 -0.01625000 209 207 220 19475
6.43825006 8.62400055 -0.01575000 209 207 220 19271
6.43825006 8.62400055 -0.01525000 209 207 220 19475
6.43774986 8.62349987 -0.01475000 209 207 220 18500
6.43825006 8.62400055 -0.01425000 209 207 220 18071
6.43799973 8.62374973 -0.01375000 217 217 227 17339
6.43750000 8.62325001 -0.01275000 217 217 227 16125
6.43825006 8.62400055 -0.01225000 217 217 227 14789
6.43725014 8.62275028 -0.01175000 217 217 227 13014
6.43725014 8.62275028 -0.01125000 217 217 227 11014
6.43700027 8.62249947 -0.01075000 217 217 227 9278
6.43650007 8.62174988 -0.00900000 186 189 198 4328
6.43650007 8.62150002 -0.00600000 186 189 198 1753
6.43674994 8.62199974 -0.00550000 186 189 198 1960
6.43599987 8.62100029 -0.00250000 132 135 144 10475
6.43575001 8.62075043 -0.00200000 132 135 144 13014
6.43550014 8.62050056 -0.00150000 132 135 144 15153
6.43599987 8.62100029 -0.00100000 132 135 144 16557
6.43550014 8.62024975 -0.00050000 142 145 154 17446
6.43550014 8.62024975 0.00000000 142 145 154 18500
6.43525028 8.61999989 0.00025000 142 145 154 19075
6.43525028 8.61999989 0.00075000 142 145 154 19825
6.43550014 8.62050056 0.00175000 142 145 154 20792
6.43575001 8.62050056 0.00225000 142 145 154 21114
6.43550014 8.62024975 0.00325000 142 145 154 21357
6.43475008 8.61925030 0.00375000 188 186 197 21275
6.43525028 8.61999989 0.00425000 188 186 197 21275
6.43475008 8.61925030 0.00525000 188 186 197 21196
6.43499994 8.61975002 0.00575000 188 186 197 21439
6.43499994 8.61950016 0.00625000 188 186 197 21692
6.43400002 8.61849976 0.00725000 188 186 197 21953
6.43449974 8.61899948 0.00775000 188 186 197 21442
6.43475008 8.61925030 0.00825000 222 214 225 21114
6.43350029 8.61750031 0.00875000 222 214 225 20878
6.43424988 8.61874962 0.00925000 222 214 225 21035
6.43350029 8.61750031 0.01075000 222 214 225 21196
6.43300009 8.61700058 0.01125000 222 214 225 21442
6.43400002 8.61824989 0.01225000 222 214 225 20796
6.43375015 8.61800003 0.01275000 218 208 219 20189
6.43274975 8.61674976 0.01475000 218 208 219 20489
6.43324995 8.61725044 0.01525000 218 208 219 20642
6.43249989 8.61649990 0.01625000 218 208 219 20878
6.43225002 8.61600018 0.01675000 218 208 219 20192
6.43274975 8.61674976 0.01725000 212 200 212 20189
6.43274975 8.61674976 0.01775000 212 200 212 20264
6.43274975 8.61674976 0.01825000 212 200 212 20717
6.43249989 8.61649990 0.01875000 212 200 212 20878
6.43274975 8.61674976 0.01925000 212 200 212 20642
6.43249989 8.61649990 0.02000000 212 200 212 20117
6.43175030 8.61524963 0.02050000 212 200 212 19828
6.43175030 8.61549950 0.02200000 219 211 224 20264
6.43125010 8.61474991 0.02250000 219 211 224 20046
6.43149996 8.61499977 0.02350000 219 211 224 19207
6.43099976 8.61425018 0.02400000 219 211 224 18946
6.43175030 8.61524963 0.02500000 219 211 224 19075
6.43099976 8.61425018 0.02600000 219 211 224 19342
6.43099976 8.61450005 0.02750000 218 220 232 20339
6.43025017 8.61324978 0.02950000 218 220 232 19903
6.42999983 8.61275005 0.03050000 218 220 232 19346
6.43025017 8.61350060 0.03250000 206 216 225 20721
6.42999983 8.61275005 0.03300000 206 216 225 20192
6.42950010 8.61250019 0.03350000 206 216 225 20567
6.42999983 8.61299992 0.03500000 206 216 225 20567
6.42924976 8.61199951 0.03550000 202 220 224 20567
6.42974997 8.61275005 0.03600000 202 220 224 20267
6.42899990 8.61174965 0.03650000 202 220 224 19828
6.42850018 8.61100006 0.03700000 202 220 224 20046
6.42950010 8.61250019 0.03750000 202 220 224 19550
6.42850018 8.61100006 0.03800000 202 220 224 19550
6.42875004 8.61149979 0.03850000 202 220 224 19142
6.42850018 8.61100006 0.03900000 202 220 224 19550
6.42899990 8.61174965 0.03950000 202 220 224 20121
6.42799997 8.61025047 0.04050000 197 213 212 20492
6.42824984 8.61050034 0.04100000 197 213 212 21200
6.42749977 8.60974979 0.04250000 197 213 212 20721
6.42850018 8.61124992 0.04300000 197 213 212 20567
6.42824984 8.61050034 0.04350000 197 213 212 20267
6.42799997 8.61050034 0.04400000 197 213 212 20417
6.42724991 8.60925007 0.04450000 215 218 211 20725
6.42824984 8.61050034 0.04600000 215 218 211 17907
6.44624996 8.63374996 -0.06150000 127 117 141 10221
6.44624996 8.63374996 -0.06100000 127 117 141 12739
6.44600010 8.63325024 -0.06050000 127 117 141 14549
6.44700003 8.63475037 -0.06000000 127 117 141 16503
6.44575024 8.63325024 -0.05950000 127 117 141 18132
6.44675016 8.63450050 -0.05900000 169 167 188 19467
6.44600010 8.63325024 -0.05850000 169 167 188 20946
6.44649982 8.63399982 -0.05800000 169 167 188 21600
6.44649982 8.63399982 -0.05700000 169 167 188 21432
6.44549990 8.63274956 -0.05650000 169 167 188 21107
6.44525003 8.63249969 -0.05600000 169 167 188 20710
6.44525003 8.63224983 -0.05550000 169 167 188 20328
6.44500017 8.63224983 -0.05400000 192 198 214 19960
6.44474983 8.63175011 -0.05250000 192 198 214 20328
6.44500017 8.63199997 -0.05050000 192 198 214 22389
6.44425011 8.63125038 -0.04950000 195 204 219 22207
6.44500017 8.63199997 -0.04900000 195 204 219 22207
6.44449997 8.63150024 -0.04850000 195 204 219 21942
6.44374990 8.63049984 -0.04800000 195 204 219 21771
6.44449997 8.63150024 -0.04750000 195 204 219 21517
6.44449997 8.63150024 -0.04700000 195 204 219 21435
6.44449997 8.63125038 -0.04575000 195 204 219 21603
6.44400024 8.63100052 -0.04525000 195 207 219 21517
6.44400024 8.63074970 -0.04475000 195 207 219 21189
6.44324970 8.62975025 -0.04425000 195 207 219 21689
6.44324970 8.62975025 -0.04375000 195 207 219 21946
6.44400024 8.63074970 -0.04325000 195 207 219 22296
6.44324970 8.62975025 -0.04275000 195 207 219 21857
6.44350004 8.63000011 -0.04225000 195 207 219 21350
6.44324970 8.62975025 -0.04125000 195 207 219 19821
6.44274998 8.62899971 -0.04075000 196 208 220 19750
6.44324970 8.62975025 -0.04025000 196 208 220 20035
6.44250011 8.62874985 -0.03925000 196 208 220 20039
6.44274998 8.62924957 -0.03825000 196 208 220 20635
6.44175005 8.62775040 -0.03675000 196 208 220 19471
6.44199991 8.62800026 -0.03625000 195 203 214 19610
6.44175005 8.62800026 -0.03475000 195 203 214 19896
6.44149971 8.62750053 -0.03275000 195 203 214 20110
6.44099998 8.62674999 -0.03075000 205 209 221 20039
6.44124985 8.62699986 -0.03025000 205 209 221 20185
6.44075012 8.62650013 -0.02975000 205 209 221 20039
6.44050026 8.62625027 -0.02925000 205 209 221 19964
6.44000006 8.62549973 -0.02675000 211 211 223 20482
6.44075012 8.62625027 -0.02625000 211 211 223 20110
6.44000006 8.62549973 -0.02575000 211 211 223 20114
6.43949986 8.62475014 -0.02375000 211 211 223 20185
6.43949986 8.62475014 -0.02325000 211 211 223 19967
6.43974972 8.62524986 -0.02275000 206 204 217 19964
6.44000006 8.62524986 -0.02175000 206 204 217 20039
6.43974972 8.62500000 -0.02125000 206 204 217 19821
6.43924999 8.62450027 -0.02075000 206 204 217 19753
6.43900013 8.62425041 -0.02025000 206 204 217 19896
6.43924999 8.62450027 -0.01975000 206 204 217 19896
6.43924999 8.62450027 -0.01900000 206 204 217 19682
6.43924999 8.62450027 -0.01850000 209 207 220 20410
6.43875027 8.62374973 -0.01800000 209 207 220 20332
6.43924999 8.62450027 -0.01750000 209 207 220 21192
6.43900013 8.62425041 -0.01700000 209 207 220 20560
6.43900013 8.62400055 -0.01650000 209 207 220 20114
6.43875027 8.62374973 -0.01600000 209 207 220 20039
6.43900013 8.62400055 -0.01550000 209 207 220 19475
6.43825006 8.62300014 -0.01500000 209 207 220 19203
6.43900013 8.62400055 -0.01400000 217 217 227 18560
6.43875027 8.62400055 -0.01350000 217 217 227 18192
6.43825006 8.62300014 -0.01300000 217 217 227 17228
6.43750000 8.62224960 -0.01250000 217 217 227 16707
6.43799973 8.62275028 -0.01200000 217 217 227 15403
6.43825006 8.62300014 -0.01150000 217 217 227 13860
6.43774986 8.62224960 -0.01100000 217 217 227 12775
6.43799973 8.62275028 -0.01050000 217 217 227 11103
6.43799973 8.62275028 -0.01000000 217 217 227 9389
6.43750000 8.62199974 -0.00900000 186 189 198 5825
6.43725014 8.62150002 -0.00850000 186 189 198 4367
6.43725014 8.62174988 -0.00800000 186 189 198 3492
6.43674994 8.62100029 -0.00600000 186 189 198 2189
6.43750000 8.62199974 -0.00500000 132 135 144 3292
6.43599987 8.61999989 -0.00300000 132 135 144 11378
6.43575001 8.61975002 -0.00200000 132 135 144 15671
6.43674994 8.62100029 -0.00150000 132 135 144 17178
6.43650007 8.62075043 -0.00100000 132 135 144 18253
6.43599987 8.62024975 -0.00050000 142 145 154 18564
6.43624973 8.62050056 0.00000000 142 145 154 19071
