//X Y Z R G B Intensity
6.41899967 8.61649990 0.04200000 207 212 218 19553
6.41874981 8.61625004 0.04300000 207 212 218 18882
6.41899967 8.61625004 0.04400000 207 212 218 16514
6.41874981 8.61625004 0.04500000 207 212 218 12321
6.41849995 8.61549950 0.04600000 197 198 203 7174
6.43725014 8.63899994 -0.05950000 112 103 122 13132
6.43624973 8.63775063 -0.05450000 151 148 165 20328
6.43599987 8.63724995 -0.05350000 151 148 165 20182
6.43599987 8.63749981 -0.05250000 189 191 206 20710
6.43650007 8.63800049 -0.05150000 189 191 206 21025
6.43599987 8.63749981 -0.05050000 189 191 206 21189
6.43599987 8.63724995 -0.04950000 189 191 206 21107
6.43550014 8.63649940 -0.04750000 197 203 217 21028
6.43550014 8.63675022 -0.04650000 197 203 217 21189
6.43475008 8.63549995 -0.04550000 197 203 217 20946
6.43475008 8.63574982 -0.04450000 197 203 217 20789
6.43449974 8.63549995 -0.04350000 193 199 213 20789
6.43499994 8.63599968 -0.04250000 193 199 213 20871
6.43449974 8.63525009 -0.04150000 193 199 213 20035
6.43400002 8.63475037 -0.04050000 193 199 213 19964
6.43375015 8.63425064 -0.03950000 193 199 213 19542
6.43375015 8.63425064 -0.03850000 200 206 220 19896
6.43375015 8.63450050 -0.03750000 200 206 220 20407
6.43300009 8.63325024 -0.03650000 200 206 220 20560
6.43375015 8.63450050 -0.03550000 200 206 220 20332
6.43274975 8.63274956 -0.03450000 194 197 212 20039
6.43350029 8.63399982 -0.03350000 194 197 212 20407
6.43274975 8.63299942 -0.03150000 194 197 212 20560
6.43300009 8.63325024 -0.03050000 194 197 212 21189
6.43200016 8.63224983 -0.02950000 198 200 215 20635
6.43200016 8.63199997 -0.02850000 198 200 215 19753
6.43149996 8.63125038 -0.02750000 198 200 215 19403
6.43149996 8.63125038 -0.02550000 209 205 222 19614
6.43149996 8.63125038 -0.02450000 209 205 222 19821
6.43125010 8.63125038 -0.02350000 209 205 222 20114
6.43074989 8.63024998 -0.02150000 209 205 222 14592
6.43125010 8.63100052 -0.02050000 192 180 200 10782
6.43074989 8.63024998 -0.01950000 192 180 200 6910
6.43000031 8.62924957 -0.01850000 192 180 200 4082
6.43074989 8.63024998 -0.01750000 192 180 200 2585
6.42875004 8.62775040 -0.01250000 141 126 147 1035
6.42875004 8.62775040 -0.00850000 94 76 98 1028
6.42825031 8.62699986 -0.00750000 74 55 75 996
6.42724991 8.62549973 -0.00050000 73 54 73 1060
6.42700005 8.62524986 0.00025000 73 54 73 1128
6.42624998 8.62425041 0.00625000 84 70 87 6428
6.42600012 8.62400055 0.00725000 84 70 87 10635
6.42549992 8.62325001 0.00825000 84 70 87 14478
6.42500019 8.62249947 0.01225000 131 123 138 19478
6.42424965 8.62174988 0.01325000 131 123 138 20564
6.42475033 8.62224960 0.01425000 131 123 138 20564
6.42500019 8.62274933 0.01525000 179 175 190 21278
6.42424965 8.62150002 0.01725000 179 175 190 22128
6.42449999 8.62174988 0.01825000 179 175 190 21442
6.42424965 8.62174988 0.01925000 200 202 215 20042
6.42350006 8.62075043 0.02025000 200 202 215 19903
6.42350006 8.62050056 0.02125000 200 202 215 19207
6.42300034 8.61975002 0.02225000 200 202 215 19617
6.42300034 8.61999989 0.02325000 200 202 215 19760
6.42249966 8.61924934 0.02425000 198 204 218 20489
6.42300034 8.61975002 0.02525000 198 204 218 20796
6.42150021 8.61800003 0.03325000 200 208 219 20267
6.42074966 8.61674976 0.03825000 197 204 214 20417
6.42024994 8.61625004 0.03925000 197 204 214 19903
6.41950035 8.61524963 0.04025000 197 204 214 19553
6.41975021 8.61549950 0.04125000 197 204 214 19482
6.41975021 8.61549950 0.04225000 207 212 218 19078
6.41975021 8.61574936 0.04325000 207 212 218 18753
6.41925001 8.61499977 0.04525000 207 212 218 13625
6.43849993 8.63899994 -0.06075000 122 113 132 7282
6.43750000 8.63775063 -0.05675000 169 166 183 19200
6.43700027 8.63700008 -0.05575000 169 166 183 19750
6.43700027 8.63700008 -0.05275000 196 198 213 20635
6.43700027 8.63724995 -0.05175000 196 198 213 21028
6.43725014 8.63749981 -0.05075000 196 198 213 21435
6.43650007 8.63649940 -0.04975000 196 198 213 21350
6.43674994 8.63675022 -0.04875000 196 198 213 21435
6.43624973 8.63599968 -0.04675000 197 203 217 21603
6.43550014 8.63525009 -0.04575000 197 203 217 21435
6.43525028 8.63450050 -0.04375000 196 206 218 21271
6.43525028 8.63475037 -0.04275000 196 206 218 21771
6.43525028 8.63475037 -0.04175000 196 206 218 21521
6.43475008 8.63425064 -0.04075000 196 206 218 20635
6.43499994 8.63450050 -0.03975000 196 206 218 19542
6.43449974 8.63374996 -0.03875000 196 206 218 19821
6.43449974 8.63374996 -0.03775000 196 206 218 20257
6.43449974 8.63374996 -0.03675000 196 206 218 20257
6.43424988 8.63350010 -0.03575000 196 206 218 19753
6.43375015 8.63274956 -0.03475000 200 208 221 20039
6.43350029 8.63224983 -0.03375000 200 208 221 19964
6.43324995 8.63199997 -0.03275000 200 208 221 20039
6.43400002 8.63299942 -0.03175000 200 208 221 20257
6.43300009 8.63175011 -0.02975000 202 205 220 20635
6.43274975 8.63150024 -0.02875000 202 205 220 19964
6.43249989 8.63100052 -0.02775000 202 205 220 19821
6.43249989 8.63100052 -0.02675000 202 205 220 19753
6.43175030 8.63024998 -0.02475000 203 202 218 19825
6.43200016 8.63024998 -0.02175000 203 202 218 17667
6.43175030 8.63000011 -0.02075000 208 201 219 14985
6.43125010 8.62949944 -0.01875000 208 201 219 7107
6.43025017 8.62800026 -0.01675000 193 181 201 2578
6.43000031 8.62775040 -0.01575000 193 181 201 1774
6.43074989 8.62874985 -0.01475000 193 181 201 1439
6.42974997 8.62725067 -0.01375000 193 181 201 1221
6.43025017 8.62775040 -0.00975000 140 127 147 978
6.42875004 8.62599945 -0.00675000 87 72 91 1050
6.42924976 8.62674999 -0.00575000 87 72 91 1132
6.42825031 8.62524986 -0.00075000 66 52 69 1125
6.42799997 8.62500000 0.00000000 66 52 69 1200
6.42700005 8.62375069 0.00200000 84 72 86 1396
6.42650032 8.62274933 0.00800000 127 119 134 15578
6.42549992 8.62174988 0.01200000 178 174 188 18753
6.42500019 8.62100029 0.01400000 178 174 188 20192
6.42525005 8.62125015 0.01800000 203 205 218 21528
6.42500019 8.62100029 0.02000000 200 206 218 20117
6.42475033 8.62050056 0.02100000 200 206 218 19689
6.42374992 8.61924934 0.02200000 200 206 218 19142
6.42350006 8.61899948 0.02300000 200 206 218 19828
6.42399979 8.61950016 0.02400000 196 206 218 19903
6.42399979 8.61950016 0.02500000 196 206 218 20264
6.42350006 8.61899948 0.02900000 199 211 223 20489
6.42300034 8.61800003 0.03000000 199 211 223 20267
6.42275000 8.61800003 0.03100000 199 211 223 20567
6.42300034 8.61824989 0.03200000 199 211 223 19971
6.42224979 8.61725044 0.03300000 198 211 220 19828
6.42175007 8.61649990 0.03600000 198 211 220 20417
6.42100000 8.61549950 0.03800000 198 208 217 20121
6.42100000 8.61574936 0.03900000 198 208 217 20046
6.42074966 8.61524963 0.04000000 198 208 217 20046
6.42100000 8.61549950 0.04100000 198 208 217 19482
6.42049980 8.61499977 0.04200000 206 213 221 19482
6.42074966 8.61499977 0.04300000 206 213 221 19278
6.42074966 8.61524963 0.04400000 206 213 221 17907
6.43949986 8.63899994 -0.06050000 122 113 132 9907
6.43875027 8.63775063 -0.05950000 122 113 132 14514
6.43825006 8.63700008 -0.05750000 122 113 132 18067
6.43799973 8.63675022 -0.05550000 169 166 183 18871
6.43750000 8.63624954 -0.05450000 169 166 183 19471
6.43750000 8.63599968 -0.05350000 169 166 183 20110
6.43750000 8.63624954 -0.05250000 196 198 213 21028
6.43774986 8.63649940 -0.05150000 196 198 213 21267
6.43725014 8.63574982 -0.05050000 196 198 213 21435
6.43774986 8.63649940 -0.04950000 196 198 213 21350
6.43774986 8.63624954 -0.04850000 196 198 213 22121
6.43750000 8.63599968 -0.04750000 197 203 217 21942
6.43674994 8.63500023 -0.04650000 197 203 217 21603
6.43674994 8.63525009 -0.04550000 197 203 217 21603
6.43674994 8.63500023 -0.04450000 197 203 217 21271
6.43650007 8.63475037 -0.04350000 196 206 218 21435
6.43624973 8.63450050 -0.04250000 196 206 218 21857
6.43575001 8.63374996 -0.04150000 196 206 218 20871
6.43575001 8.63374996 -0.04050000 196 206 218 20557
6.43525028 8.63325024 -0.03950000 196 206 218 19750
6.43499994 8.63274956 -0.03850000 196 206 218 19542
6.43525028 8.63299942 -0.03750000 196 206 218 19896
6.43550014 8.63325024 -0.03650000 196 206 218 19471
6.43449974 8.63199997 -0.03550000 196 206 218 19071
6.43475008 8.63249969 -0.03450000 200 208 221 19335
6.43400002 8.63150024 -0.03350000 200 208 221 19475
6.43400002 8.63150024 -0.03250000 200 208 221 19271
6.43424988 8.63175011 -0.03150000 200 208 221 20110
6.43449974 8.63224983 -0.03050000 200 208 221 20560
6.43400002 8.63150024 -0.02950000 202 205 220 20482
6.43350029 8.63075066 -0.02850000 202 205 220 20260
6.43350029 8.63075066 -0.02750000 202 205 220 20114
6.43274975 8.62974930 -0.02550000 203 202 218 19403
6.43324995 8.63049984 -0.02450000 203 202 218 20185
6.43300009 8.63000011 -0.02350000 203 202 218 21271
6.43274975 8.62974930 -0.02250000 203 202 218 20482
6.43274975 8.62974930 -0.02150000 203 202 218 19271
6.43274975 8.62949944 -0.02050000 208 201 219 17557
6.43249989 8.62949944 -0.01950000 208 201 219 14110
6.43125010 8.62800026 -0.01850000 208 201 219 10221
6.43099976 8.62725067 -0.01550000 193 181 201 2542
6.43074989 8.62699986 -0.01350000 193 181 201 1371
6.42974997 8.62549973 -0.00350000 87 72 91 1171
6.42799997 8.62325001 0.00425000 84 72 86 6535
6.42724991 8.62224960 0.00825000 127 119 134 17232
6.42724991 8.62224960 0.00925000 127 119 134 17507
6.42700005 8.62174988 0.01025000 178 174 188 17732
6.42624998 8.62100029 0.01125000 178 174 188 18439
6.42675018 8.62150002 0.01325000 178 174 188 20117
6.42624998 8.62100029 0.01425000 178 174 188 20796
6.42650032 8.62125015 0.01525000 203 205 218 22303
6.42600012 8.62075043 0.01625000 203 205 218 22953
6.42600012 8.62075043 0.01725000 203 205 218 21610
6.42525005 8.61975002 0.01925000 200 206 218 19617
6.42525005 8.61975002 0.02125000 200 206 218 19550
6.42449999 8.61874962 0.02425000 196 206 218 20339
6.42500019 8.61924934 0.02525000 196 206 218 20642
6.42424965 8.61849976 0.02625000 196 206 218 20878
6.42374992 8.61750031 0.03225000 199 211 223 19760
6.42300034 8.61674976 0.03325000 198 211 220 19410
6.42300034 8.61674976 0.03625000 198 211 220 19971
6.42224979 8.61574936 0.03725000 198 208 217 19346
6.42199993 8.61524963 0.03825000 198 208 217 19903
6.42199993 8.61524963 0.03925000 198 208 217 19482
6.42150021 8.61474991 0.04125000 198 208 217 19210
6.42175007 8.61474991 0.04225000 206 213 221 19210
6.42150021 8.61474991 0.04325000 206 213 221 18753
6.42150021 8.61450005 0.04425000 206 213 221 17960
6.42150021 8.61450005 0.04525000 206 213 221 15117
6.42100000 8.61400032 0.04625000 200 203 208 10150
6.44050026 8.63850021 -0.06075000 122 113 132 9750
6.43974972 8.63749981 -0.05775000 122 113 132 18871
6.43949986 8.63700008 -0.05675000 169 166 183 18939
6.43900013 8.63649940 -0.05575000 169 166 183 19267
6.43875027 8.63599968 -0.05475000 169 166 183 19750
6.43849993 8.63574982 -0.05275000 196 198 213 20635
6.43799973 8.63525009 -0.05175000 196 198 213 20710
6.43849993 8.63574982 -0.05075000 196 198 213 21028
6.43774986 8.63475037 -0.04975000 196 198 213 21028
6.43849993 8.63599968 -0.04875000 196 198 213 21350
6.43750000 8.63450050 -0.04775000 197 203 217 21028
6.43774986 8.63475037 -0.04675000 197 203 217 21028
6.43774986 8.63475037 -0.04575000 197 203 217 21517
6.43774986 8.63500023 -0.04475000 197 203 217 20867
6.43725014 8.63425064 -0.04375000 196 206 218 21603
6.43750000 8.63450050 -0.04275000 196 206 218 21771
6.43650007 8.63325024 -0.04175000 196 206 218 21435
6.43650007 8.63325024 -0.04075000 196 206 218 21028
6.43624973 8.63299942 -0.03875000 196 206 218 19542
6.43624973 8.63299942 -0.03775000 196 206 218 19896
6.43599987 8.63249969 -0.03675000 196 206 218 19135
6.43599987 8.63249969 -0.03575000 196 206 218 18939
6.43599987 8.63224983 -0.03475000 200 208 221 19896
6.43599987 8.63249969 -0.03375000 200 208 221 19821
6.43525028 8.63150024 -0.03275000 200 208 221 19614
6.43475008 8.63075066 -0.03175000 200 208 221 20410
6.43475008 8.63100052 -0.03075000 200 208 221 20185
6.43475008 8.63075066 -0.02975000 202 205 220 20260
6.43400002 8.62974930 -0.02875000 202 205 220 19896
6.43375015 8.62949944 -0.02775000 202 205 220 19753
6.43375015 8.62949944 -0.02575000 203 202 218 19821
6.43449974 8.63024998 -0.02475000 203 202 218 19964
6.43350029 8.62899971 -0.02375000 203 202 218 19896
6.43375015 8.62974930 -0.02275000 203 202 218 20482
6.43300009 8.62825012 -0.01975000 208 201 219 15985
6.43249989 8.62775040 -0.01675000 193 181 201 6989
6.43200016 8.62725067 -0.01575000 193 181 201 4139
6.43225002 8.62750053 -0.01375000 193 181 201 1753
6.43125010 8.62624931 -0.01175000 140 127 147 1075
6.43099976 8.62574959 -0.00675000 87 72 91 1085
6.43025017 8.62475014 -0.00075000 66 52 69 1382
6.42899990 8.62325001 0.00400000 84 72 86 9453
6.42850018 8.62224960 0.00500000 84 72 86 13014
6.42875004 8.62274933 0.00700000 127 119 134 17232
6.42825031 8.62199974 0.00800000 127 119 134 17903
6.42799997 8.62174988 0.00900000 127 119 134 18439
6.42724991 8.62100029 0.01000000 178 174 188 18814
6.42700005 8.62050056 0.01200000 178 174 188 19617
6.42724991 8.62075043 0.01300000 178 174 188 20642
6.42775011 8.62125015 0.01400000 178 174 188 20878
6.42724991 8.62075043 0.01500000 203 205 218 21196
6.42650032 8.61975002 0.01800000 203 205 218 19207
6.42650032 8.61950016 0.01900000 200 206 218 19207
6.42574978 8.61849976 0.02000000 200 206 218 19550
6.42600012 8.61899948 0.02100000 200 206 218 19550
6.42574978 8.61899948 0.02200000 200 206 218 20046
6.42600012 8.61924934 0.02300000 200 206 218 20489
6.42549992 8.61849976 0.02400000 196 206 218 20642
6.42549992 8.61824989 0.02600000 196 206 218 20489
6.42500019 8.61775017 0.03000000 199 211 223 19971
6.42449999 8.61700058 0.03300000 198 211 220 19550
6.42325020 8.61524963 0.03600000 198 211 220 20121
6.42300034 8.61524963 0.03700000 198 208 217 20121
6.42325020 8.61524963 0.03800000 198 208 217 19760
6.42275000 8.61474991 0.03900000 198 208 217 19346
6.42249966 8.61425018 0.04000000 198 208 217 19210
6.42300034 8.61499977 0.04100000 198 208 217 19078
6.42275000 8.61474991 0.04200000 206 213 221 19550
6.42199993 8.61375046 0.04300000 206 213 221 19278
6.42249966 8.61425018 0.04400000 206 213 221 19010
6.42199993 8.61350060 0.04500000 206 213 221 16514
6.42175007 8.61324978 0.04600000 200 203 208 11575
6.42199993 8.61375046 0.04700000 200 203 208 6021
6.44099998 8.63749981 -0.06050000 122 113 132 12592
6.44024992 8.63649940 -0.05950000 122 113 132 16214
6.44024992 8.63649940 -0.05850000 122 113 132 18939
6.44024992 8.63649940 -0.05750000 122 113 132 19678
6.44024992 8.63649940 -0.05550000 169 166 183 19610
6.43974972 8.63574982 -0.05450000 169 166 183 20110
6.44000006 8.63624954 -0.05350000 169 166 183 20257
6.43900013 8.63500023 -0.05250000 196 198 213 20557
6.43875027 8.63475037 -0.05150000 196 198 213 21189
6.43900013 8.63500023 -0.05050000 196 198 213 20946
6.43849993 8.63425064 -0.04950000 196 198 213 20871
6.43875027 8.63425064 -0.04850000 196 198 213 20328
6.43849993 8.63425064 -0.04750000 197 203 217 20182
6.43900013 8.63475037 -0.04650000 197 203 217 20635
6.43849993 8.63399982 -0.04550000 197 203 217 21189
6.43774986 8.63325024 -0.04350000 196 206 218 21028
6.43799973 8.63325024 -0.04150000 196 206 218 21771
6.43725014 8.63249969 -0.03750000 196 206 218 19335
6.43700027 8.63199997 -0.03650000 196 206 218 19003
6.43674994 8.63199997 -0.03550000 196 206 218 19821
6.43624973 8.63125038 -0.03350000 200 208 221 20410
6.43575001 8.63049984 -0.03150000 200 208 221 20332
6.43550014 8.63000011 -0.03050000 200 208 221 20185
6.43525028 8.63000011 -0.02950000 202 205 220 19896
6.43575001 8.63049984 -0.02850000 202 205 220 19682
6.43475008 8.62899971 -0.02750000 202 205 220 19896
6.43550014 8.63000011 -0.02650000 202 205 220 20482
6.43400002 8.62825012 -0.02450000 203 202 218 19825
6.43449974 8.62874985 -0.02350000 203 202 218 20410
6.43449974 8.62874985 -0.02250000 203 202 218 20185
6.43449974 8.62899971 -0.02150000 203 202 218 19682
6.43424988 8.62849998 -0.02050000 208 201 219 18810
6.43375015 8.62800026 -0.01950000 208 201 219 17071
6.43324995 8.62699986 -0.01750000 208 201 219 13075
6.43249989 8.62599945 -0.01450000 193 181 201 3532
6.43350029 8.62725067 -0.01350000 193 181 201 2250
6.43324995 8.62699986 -0.01250000 193 181 201 1603
6.43099976 8.62400055 -0.00150000 66 52 69 1307
6.43099976 8.62400055 -0.00050000 66 52 69 1446
6.43000031 8.62274933 0.00025000 66 52 69 1942
6.43000031 8.62274933 0.00125000 84 72 86 3325
6.42974997 8.62224960 0.00325000 84 72 86 10782
6.42950010 8.62199974 0.00525000 84 72 86 16317
6.42950010 8.62224960 0.00625000 127 119 134 17957
6.42950010 8.62199974 0.00925000 127 119 134 19757
6.42875004 8.62100029 0.01025000 178 174 188 19617
6.42799997 8.61999989 0.01125000 178 174 188 19617
6.42850018 8.62050056 0.01225000 178 174 188 20796
6.42825031 8.62025070 0.01325000 178 174 188 21278
6.42749977 8.61924934 0.01425000 178 174 188 21196
6.42749977 8.61950016 0.01525000 203 205 218 20878
6.42799997 8.62025070 0.01625000 203 205 218 20489
6.42775011 8.61950016 0.01725000 203 205 218 19689
6.42775011 8.61950016 0.01825000 203 205 218 19410
6.42724991 8.61899948 0.01925000 200 206 218 19689
6.42675018 8.61824989 0.02025000 200 206 218 20046
6.42700005 8.61874962 0.02125000 200 206 218 20489
6.42675018 8.61849976 0.02325000 200 206 218 21117
6.42675018 8.61824989 0.02525000 196 206 218 20721
6.42574978 8.61700058 0.02625000 196 206 218 20117
6.42549992 8.61674976 0.02925000 199 211 223 19621
6.42475033 8.61574936 0.03625000 198 211 220 19550
6.42449999 8.61549950 0.03725000 198 208 217 19210
6.42399979 8.61474991 0.03825000 198 208 217 19621
6.42399979 8.61474991 0.03925000 198 208 217 19410
6.42374992 8.61425018 0.04025000 198 208 217 19278
6.42374992 8.61425018 0.04125000 198 208 217 19689
6.42300034 8.61350060 0.04525000 206 213 221 16867
6.42275000 8.61299992 0.04625000 200 203 208 12267
6.44199991 8.63724995 -0.05975000 132 123 144 16960
6.44099998 8.63599968 -0.05775000 132 123 144 19817
6.44075012 8.63525009 -0.05675000 182 179 198 19817
6.44075012 8.63549995 -0.05475000 182 179 198 19817
6.44050026 8.63500023 -0.05375000 182 179 198 20035
6.44024992 8.63475037 -0.05275000 197 200 217 20257
6.44000006 8.63450050 -0.05175000 197 200 217 20867
6.44000006 8.63450050 -0.05075000 197 200 217 20635
6.44000006 8.63450050 -0.04975000 197 200 217 19610
6.43949986 8.63374996 -0.04875000 197 200 217 19471
6.43924999 8.63350010 -0.04575000 191 198 214 21107
6.43875027 8.63274956 -0.04475000 191 198 214 20557
6.43849993 8.63224983 -0.04375000 195 207 221 21028
6.43900013 8.63299942 -0.04175000 195 207 221 21107
6.43825006 8.63224983 -0.04075000 195 207 221 19892
6.43750000 8.63125038 -0.03875000 192 204 218 19335
6.43750000 8.63100052 -0.03775000 192 204 218 19542
6.43774986 8.63150024 -0.03675000 192 204 218 19542
6.43750000 8.63100052 -0.03575000 192 204 218 19821
6.43725014 8.63075066 -0.03475000 203 212 227 20185
6.43725014 8.63075066 -0.03375000 203 212 227 20871
6.43674994 8.63024998 -0.03275000 203 212 227 20714
6.43674994 8.63000011 -0.03175000 203 212 227 20714
6.43650007 8.62974930 -0.03075000 203 212 227 20482
6.43624973 8.62924957 -0.02975000 202 208 224 19896
6.43599987 8.62899971 -0.02875000 202 208 224 19682
6.43624973 8.62924957 -0.02775000 202 208 224 20110
6.43599987 8.62899971 -0.02675000 202 208 224 20635
6.43525028 8.62800026 -0.02575000 197 198 216 20792
6.43599987 8.62924957 -0.02475000 197 198 216 20110
6.43550014 8.62849998 -0.02275000 197 198 216 19964
6.43525028 8.62800026 -0.02175000 197 198 216 19821
6.43449974 8.62699986 -0.01975000 206 203 222 18014
6.43375015 8.62624931 -0.01675000 214 205 226 12892
6.43375015 8.62624931 -0.01275000 214 205 226 2435
6.43300009 8.62524986 -0.01075000 183 171 193 1403
6.43249989 8.62425041 -0.00975000 183 171 193 1235
6.43324995 8.62524986 -0.00775000 139 126 146 1107
6.43274975 8.62475014 -0.00575000 139 126 146 1164
6.43249989 8.62425041 -0.00475000 139 126 146 1242
6.43175030 8.62349987 -0.00175000 96 85 101 1421
6.43175030 8.62325001 -0.00075000 96 85 101 1696
6.43074989 8.62199974 0.00000000 96 85 101 2675
6.43050003 8.62174988 0.00300000 130 122 135 13425
6.43074989 8.62199974 0.00500000 130 122 135 17903
6.43000031 8.62100029 0.00600000 175 171 185 18814
6.43050003 8.62150002 0.00700000 175 171 185 19139
6.43050003 8.62174988 0.00800000 175 171 185 19546
6.42950010 8.62025070 0.00900000 175 171 185 19828
6.42974997 8.62075043 0.01000000 203 203 215 19971
6.42924976 8.62025070 0.01200000 203 203 215 19828
6.42899990 8.61975002 0.01300000 203 203 215 20339
6.42899990 8.61975002 0.01400000 203 203 215 20264
6.42875004 8.61924934 0.01500000 204 210 222 20117
6.42850018 8.61899948 0.01600000 204 210 222 20489
6.42825031 8.61874962 0.01700000 204 210 222 19757
6.42850018 8.61899948 0.01800000 204 210 222 19828
6.42775011 8.61800003 0.01900000 198 208 220 20192
6.42850018 8.61899948 0.02000000 198 208 220 20878
6.42799997 8.61824989 0.02100000 198 208 220 20642
6.42799997 8.61824989 0.02200000 198 208 220 20117
6.42799997 8.61824989 0.02300000 198 208 220 20642
6.42675018 8.61674976 0.02600000 196 210 221 19828
6.42675018 8.61649990 0.02700000 196 210 221 20339
6.42675018 8.61649990 0.03000000 200 217 227 20878
6.42650032 8.61625004 0.03100000 200 217 227 20567
6.42600012 8.61574936 0.03200000 200 217 227 20267
6.42549992 8.61499977 0.03700000 197 210 218 19078
6.42525005 8.61450005 0.03900000 197 210 218 19760
6.42475033 8.61375046 0.04100000 197 210 218 19346
6.42350006 8.61250019 0.04700000 201 206 210 8878
6.44299984 8.63675022 -0.06050000 132 123 144 14589
6.44274998 8.63649940 -0.05850000 132 123 144 19000
6.44199991 8.63549995 -0.05750000 132 123 144 19960
6.44199991 8.63549995 -0.05650000 182 179 198 19750
6.44149971 8.63475037 -0.05550000 182 179 198 19471
6.44099998 8.63425064 -0.05450000 182 179 198 19610
6.44149971 8.63450050 -0.05350000 182 179 198 19892
6.44075012 8.63399982 -0.05250000 197 200 217 20110
6.44099998 8.63399982 -0.05150000 197 200 217 20257
6.44050026 8.63350010 -0.05050000 197 200 217 19750
6.44024992 8.63325024 -0.04850000 197 200 217 20110
6.44050026 8.63325024 -0.04650000 191 198 214 20635
6.44024992 8.63299942 -0.04550000 191 198 214 20482
6.44000006 8.63274956 -0.04450000 191 198 214 20332
6.44000006 8.63274956 -0.04350000 195 207 221 20407
6.43949986 8.63224983 -0.04250000 195 207 221 20871
6.43924999 8.63175011 -0.04150000 195 207 221 20557
6.43875027 8.63100052 -0.03850000 192 204 218 19964
6.43875027 8.63100052 -0.03750000 192 204 218 20110
6.43774986 8.62974930 -0.03550000 192 204 218 20332
6.43799973 8.63000011 -0.03450000 203 212 227 20950
6.43750000 8.62924957 -0.03250000 203 212 227 20257
6.43750000 8.62949944 -0.03150000 203 212 227 20185
6.43700027 8.62849998 -0.03050000 203 212 227 19896
6.43725014 8.62899971 -0.02950000 202 208 224 19614
6.43700027 8.62874985 -0.02850000 202 208 224 20185
6.43700027 8.62874985 -0.02650000 202 208 224 21607
6.43650007 8.62800026 -0.02550000 197 198 216 21439
6.43674994 8.62849998 -0.02450000 197 198 216 20560
6.43650007 8.62800026 -0.02350000 197 198 216 19896
6.43624973 8.62775040 -0.02250000 197 198 216 21032
6.43624973 8.62800026 -0.02150000 197 198 216 20114
6.43550014 8.62650013 -0.02050000 206 203 222 19403
6.43550014 8.62650013 -0.01950000 206 203 222 18685
6.43499994 8.62599945 -0.01750000 206 203 222 17228
6.43499994 8.62624931 -0.01650000 214 205 226 15196
6.43424988 8.62500000 -0.01150000 183 171 193 2350
6.43400002 8.62450027 -0.00750000 139 126 146 1260
6.43350029 8.62400055 -0.00650000 139 126 146 1242
6.43249989 8.62274933 -0.00550000 139 126 146 1235
6.43324995 8.62375069 -0.00350000 139 126 146 1375
6.43149996 8.62125015 0.00125000 130 122 135 10057
6.43125010 8.62125015 0.00325000 130 122 135 16864
6.43200016 8.62199974 0.00425000 130 122 135 18564
6.43125010 8.62100029 0.00525000 130 122 135 18814
6.43074989 8.62025070 0.00725000 175 171 185 19007
6.43074989 8.62025070 0.00825000 175 171 185 19075
6.43050003 8.61999989 0.00925000 175 171 185 18814
6.43000031 8.61950016 0.01025000 203 203 215 18196
6.43025017 8.61975002 0.01125000 203 203 215 18564
6.43025017 8.61975002 0.01225000 203 203 215 19478
6.42974997 8.61899948 0.01325000 203 203 215 19757
6.42950010 8.61874962 0.01425000 203 203 215 20189
6.42899990 8.61800003 0.01525000 204 210 222 20489
6.42950010 8.61874962 0.01625000 204 210 222 20564
6.42875004 8.61750031 0.01725000 204 210 222 20414
6.42875004 8.61775017 0.02225000 198 208 220 20117
6.42825031 8.61700058 0.02325000 198 208 220 20339
6.42825031 8.61700058 0.02425000 196 210 221 19971
6.42799997 8.61674976 0.02525000 196 210 221 20117
6.42749977 8.61600018 0.02625000 196 210 221 19760
6.42724991 8.61574936 0.02725000 196 210 221 20489
6.42749977 8.61600018 0.02825000 200 217 227 20642
6.42700005 8.61524963 0.02925000 200 217 227 20721
6.42749977 8.61600018 0.03025000 200 217 227 21614
6.42724991 8.61574936 0.03125000 200 217 227 21117
6.42650032 8.61474991 0.03225000 200 217 227 20417
6.42549992 8.61324978 0.03925000 197 210 218 19010
6.42574978 8.61350060 0.04025000 197 210 218 19078
6.42475033 8.61224937 0.04325000 201 210 217 19210
6.42374992 8.61100006 0.04725000 201 206 210 8525
6.44400024 8.63649940 -0.06075000 132 123 144 13685
6.44374990 8.63599968 -0.05975000 132 123 144 17500
6.44324970 8.63549995 -0.05875000 132 123 144 19067
6.44299984 8.63500023 -0.05775000 132 123 144 20182
6.44274998 8.63475037 -0.05675000 182 179 198 20182
6.44274998 8.63475037 -0.05575000 182 179 198 19610
6.44199991 8.63374996 -0.05375000 182 179 198 20182
6.44250011 8.63425064 -0.05275000 197 200 217 20328
6.44175005 8.63350010 -0.05175000 197 200 217 20328
6.44124985 8.63274956 -0.04975000 197 200 217 19403
6.44175005 8.63325024 -0.04875000 197 200 217 19678
6.44099998 8.63249969 -0.04775000 191 198 214 19821
6.44124985 8.63299942 -0.04675000 191 198 214 20110
6.44099998 8.63249969 -0.04575000 191 198 214 20257
6.44050026 8.63175011 -0.04475000 191 198 214 20946
6.44124985 8.63274956 -0.04375000 195 207 221 20867
6.44000006 8.63125038 -0.04275000 195 207 221 21189
6.44075012 8.63199997 -0.04175000 195 207 221 21107
6.43949986 8.63049984 -0.04075000 195 207 221 19964
6.43900013 8.62974930 -0.03775000 192 204 218 19896
6.43849993 8.62899971 -0.03375000 203 212 227 20039
6.43825006 8.62874985 -0.03275000 203 212 227 19614
6.43799973 8.62849998 -0.03175000 203 212 227 19753
6.43849993 8.62899971 -0.03075000 203 212 227 20257
6.43774986 8.62825012 -0.02975000 202 208 224 20635
6.43799973 8.62849998 -0.02875000 202 208 224 20792
6.43849993 8.62899971 -0.02775000 202 208 224 20635
6.43700027 8.62725067 -0.02675000 202 208 224 20871
6.43774986 8.62800026 -0.02575000 197 198 216 20792
6.43750000 8.62775040 -0.02475000 197 198 216 19964
6.43674994 8.62674999 -0.02375000 197 198 216 20039
6.43650007 8.62650013 -0.02175000 197 198 216 20114
6.43650007 8.62650013 -0.02075000 206 203 222 19753
6.43624973 8.62599945 -0.01975000 206 203 222 19071
6.43599987 8.62574959 -0.01875000 206 203 222 18750
6.43624973 8.62624931 -0.01775000 206 203 222 18500
6.43525028 8.62475014 -0.01575000 214 205 226 15846
6.43525028 8.62475014 -0.01475000 214 205 226 13896
6.43475008 8.62400055 -0.01175000 183 171 193 3675
6.43499994 8.62450027 -0.00975000 183 171 193 1696
6.43375015 8.62300014 -0.00475000 139 126 146 1360
6.43375015 8.62300014 -0.00275000 96 85 101 1739
6.43375015 8.62274933 -0.00175000 96 85 101 2728
6.43300009 8.62174988 0.00000000 96 85 101 8989
6.43249989 8.62125015 0.00100000 130 122 135 13725
6.43249989 8.62100029 0.00300000 130 122 135 18946
6.43249989 8.62100029 0.00400000 130 122 135 19685
6.43225002 8.62075043 0.00500000 130 122 135 19546
6.43175030 8.61999989 0.00800000 175 171 185 18625
6.43099976 8.61899948 0.01000000 203 203 215 18317
6.43099976 8.61924934 0.01100000 203 203 215 18503
6.43074989 8.61849976 0.01200000 203 203 215 18814
6.43050003 8.61849976 0.01300000 203 203 215 19478
6.43025017 8.61824989 0.01400000 203 203 215 20264
6.43000031 8.61775017 0.01500000 204 210 222 20796
6.43025017 8.61800003 0.01600000 204 210 222 20878
6.43050003 8.61824989 0.01700000 204 210 222 20878
6.42974997 8.61725044 0.01900000 198 208 220 21035
6.42950010 8.61700058 0.02000000 198 208 220 21696
6.42950010 8.61725044 0.02100000 198 208 220 21442
6.42899990 8.61649990 0.02200000 198 208 220 21278
6.42924976 8.61674976 0.02300000 198 208 220 20796
6.42924976 8.61674976 0.02400000 196 210 221 20264
6.42875004 8.61600018 0.02500000 196 210 221 19617
6.42875004 8.61600018 0.02600000 196 210 221 19760
6.42825031 8.61524963 0.02700000 196 210 221 20046
6.42749977 8.61450005 0.02800000 200 217 227 20489
6.42825031 8.61524963 0.03000000 200 217 227 22042
6.42775011 8.61474991 0.03100000 200 217 227 21035
6.42799997 8.61499977 0.03200000 200 217 227 20721
6.42724991 8.61400032 0.03400000 195 209 218 21035
6.42724991 8.61400032 0.03500000 195 209 218 20567
6.42700005 8.61350060 0.03600000 195 209 218 19903
6.42675018 8.61350060 0.03700000 197 210 218 19621
6.42700005 8.61375046 0.03800000 197 210 218 18950
6.42675018 8.61324978 0.03900000 197 210 218 18882
6.42650032 8.61299992 0.04100000 197 210 218 19903
6.42600012 8.61224937 0.04400000 201 210 217 18442
6.42500019 8.61124992 0.04500000 201 210 217 18382
6.44400024 8.63475037 -0.06050000 132 123 144 14589
6.44425011 8.63500023 -0.05950000 132 123 144 18010
6.44449997 8.63525009 -0.05850000 132 123 144 19750
6.44449997 8.63525009 -0.05750000 132 123 144 20478
6.44374990 8.63450050 -0.05650000 182 179 198 20035
6.44299984 8.63325024 -0.05350000 182 179 198 20035
6.44274998 8.63325024 -0.05250000 197 200 217 20867
6.44299984 8.63350010 -0.05150000 197 200 217 20867
6.44250011 8.63274956 -0.05050000 197 200 217 20635
6.44250011 8.63274956 -0.04950000 197 200 217 19821
6.44199991 8.63199997 -0.04850000 197 200 217 19821
6.44225025 8.63249969 -0.04750000 191 198 214 20257
6.44175005 8.63175011 -0.04650000 191 198 214 20482
6.44225025 8.63249969 -0.04550000 191 198 214 20635
6.44149971 8.63150024 -0.04450000 191 198 214 21271
6.44199991 8.63199997 -0.04350000 195 207 221 21771
6.44175005 8.63175011 -0.04250000 195 207 221 22032
6.44149971 8.63150024 -0.04150000 195 207 221 21107
6.44024992 8.62974930 -0.03950000 195 207 221 18875
6.44000006 8.62924957 -0.03550000 192 204 218 19200
6.43949986 8.62874985 -0.03450000 203 212 227 19403
6.44000006 8.62949944 -0.03350000 203 212 227 19471
6.43974972 8.62899971 -0.03250000 203 212 227 19271
6.43974972 8.62899971 -0.03150000 203 212 227 19542
6.43900013 8.62800026 -0.02750000 202 208 224 20635
6.43825006 8.62699986 -0.02650000 202 208 224 20114
6.43799973 8.62674999 -0.02450000 197 198 216 20039
6.43799973 8.62674999 -0.02350000 197 198 216 20260
6.43825006 8.62699986 -0.02250000 197 198 216 19896
6.43700027 8.62524986 -0.02050000 206 203 222 19071
6.43750000 8.62599945 -0.01950000 206 203 222 18875
6.43700027 8.62549973 -0.01850000 206 203 222 19135
6.43700027 8.62524986 -0.01750000 206 203 222 19071
6.43700027 8.62524986 -0.01650000 214 205 226 18625
6.43599987 8.62425041 -0.01550000 214 205 226 17782
6.43599987 8.62400055 -0.01450000 214 205 226 16125
6.43624973 8.62425041 -0.01350000 214 205 226 13200
6.43575001 8.62375069 -0.01250000 214 205 226 9417
6.43575001 8.62375069 -0.01150000 183 171 193 5917
6.43575001 8.62375069 -0.01050000 183 171 193 3503
6.43499994 8.62274933 -0.00950000 183 171 193 2246
6.43449974 8.62199974 -0.00650000 139 126 146 1335
6.43424988 8.62150002 -0.00350000 139 126 146 1875
6.43449974 8.62199974 -0.00250000 96 85 101 3139
6.43375015 8.62100029 -0.00050000 96 85 101 10146
6.43375015 8.62100029 0.00025000 96 85 101 14832
6.43400002 8.62125015 0.00125000 130 122 135 18135
6.43350029 8.62075043 0.00225000 130 122 135 19685
6.43300009 8.61999989 0.00325000 130 122 135 20414
6.43324995 8.62050056 0.00425000 130 122 135 20564
6.43324995 8.62050056 0.00525000 130 122 135 20639
6.43249989 8.61950016 0.00725000 175 171 185 19207
6.43225002 8.61899948 0.00825000 175 171 185 19139
6.43200016 8.61874962 0.00925000 175 171 185 19478
6.43225002 8.61924934 0.01025000 203 203 215 19825
6.43249989 8.61950016 0.01125000 203 203 215 19407
6.43200016 8.61849976 0.01225000 203 203 215 19546
6.43125010 8.61775017 0.01325000 203 203 215 19971
6.43074989 8.61725044 0.01525000 204 210 222 21035
6.43099976 8.61750031 0.01725000 204 210 222 20189
6.43074989 8.61700058 0.01825000 204 210 222 20042
6.43074989 8.61725044 0.01925000 198 208 220 20642
6.43074989 8.61700058 0.02025000 198 208 220 21035
6.43025017 8.61625004 0.02125000 198 208 220 20953
6.43000031 8.61625004 0.02225000 198 208 220 20796
6.43000031 8.61625004 0.02325000 198 208 220 20117
6.42974997 8.61574936 0.02425000 196 210 221 19971
6.42950010 8.61524963 0.02525000 196 210 221 19903
6.42899990 8.61474991 0.02625000 196 210 221 19828
6.42974997 8.61574936 0.02725000 196 210 221 20192
6.42899990 8.61474991 0.02825000 200 217 227 20721
6.42899990 8.61474991 0.02925000 200 217 227 21278
6.42850018 8.61375046 0.03025000 200 217 227 21278
6.42850018 8.61400032 0.03125000 200 217 227 20800
6.42799997 8.61350060 0.03225000 200 217 227 20489
6.42850018 8.61400032 0.03425000 195 209 218 20642
6.42825031 8.61375046 0.03525000 195 209 218 20417
6.42749977 8.61275005 0.03625000 195 209 218 20046
6.42675018 8.61174965 0.03825000 197 210 218 18753
6.42700005 8.61224937 0.03925000 197 210 218 19550
6.42675018 8.61149979 0.04125000 197 210 218 19903
6.42675018 8.61149979 0.04225000 201 210 217 19621
6.42650032 8.61149979 0.04325000 201 210 217 19621
6.42675018 8.61174965 0.04425000 201 210 217 19760
6.42600012 8.61050034 0.04525000 201 210 217 19414
6.42525005 8.60974979 0.04825000 201 206 210 5164
6.44549990 8.63525009 -0.06175000 132 123 144 8328
6.44525003 8.63500023 -0.06075000 132 123 144 13585
6.44474983 8.63425064 -0.05975000 132 123 144 16960
6.44474983 8.63399982 -0.05875000 132 123 144 18871
6.44474983 8.63425064 -0.05775000 132 123 144 19960
6.44425011 8.63325024 -0.05675000 182 179 198 20632
6.44449997 8.63374996 -0.05575000 182 179 198 20328
6.44374990 8.63274956 -0.05375000 182 179 198 20710
6.44400024 8.63299942 -0.05275000 197 200 217 21432
6.44374990 8.63274956 -0.05175000 197 200 217 21685
6.44350004 8.63249969 -0.05075000 197 200 217 21685
6.44324970 8.63224983 -0.04975000 197 200 217 20789
6.44324970 8.63199997 -0.04875000 197 200 217 20035
6.44250011 8.63100052 -0.04775000 191 198 214 20035
6.44324970 8.63199997 -0.04675000 191 198 214 20478
6.44274998 8.63150024 -0.04575000 191 198 214 20635
6.44274998 8.63150024 -0.04475000 191 198 214 21107
6.44225025 8.63100052 -0.04375000 195 207 221 22121
6.44199991 8.63049984 -0.04175000 195 207 221 20710
6.44075012 8.62874985 -0.03675000 192 204 218 18875
6.44075012 8.62874985 -0.03575000 192 204 218 19135
6.44075012 8.62874985 -0.03475000 203 212 227 19610
6.44075012 8.62874985 -0.03375000 203 212 227 19896
6.44050026 8.62849998 -0.03175000 203 212 227 19403
6.44050026 8.62849998 -0.03075000 203 212 227 19682
6.44000006 8.62800026 -0.02975000 202 208 224 20950
6.43924999 8.62674999 -0.02875000 202 208 224 21192
6.43949986 8.62725067 -0.02675000 202 208 224 20110
6.43875027 8.62624931 -0.02475000 197 198 216 20185
6.43924999 8.62674999 -0.02375000 197 198 216 19896
6.43825006 8.62549973 -0.02275000 197 198 216 19339
6.43875027 8.62599945 -0.02175000 197 198 216 19475
6.43875027 8.62624931 -0.02075000 206 203 222 19403
6.43799973 8.62500000 -0.01975000 206 203 222 19475
6.43799973 8.62500000 -0.01875000 206 203 222 19967
6.43799973 8.62500000 -0.01775000 206 203 222 20039
6.43774986 8.62475014 -0.01675000 214 205 226 19339
6.43750000 8.62450027 -0.01575000 214 205 226 18810
6.43725014 8.62400055 -0.01475000 214 205 226 18253
6.43725014 8.62400055 -0.01375000 214 205 226 16267
6.43700027 8.62400055 -0.01275000 214 205 226 13521
6.43674994 8.62349987 -0.01175000 183 171 193 9857
6.43624973 8.62300014 -0.00975000 183 171 193 3549
6.43599987 8.62249947 -0.00875000 183 171 193 2317
6.43624973 8.62249947 -0.00575000 139 126 146 1435
6.43499994 8.62100029 -0.00175000 96 85 101 9282
6.43499994 8.62100029 -0.00075000 96 85 101 13621
6.43424988 8.62025070 0.00000000 96 85 101 17125
6.43475008 8.62050056 0.00100000 130 122 135 19546
6.43449974 8.62025070 0.00200000 130 122 135 20796
6.43449974 8.62050056 0.00300000 130 122 135 20796
6.43449974 8.62050056 0.00400000 130 122 135 20639
6.43424988 8.61999989 0.00500000 130 122 135 21114
6.43375015 8.61950016 0.00700000 175 171 185 20485
6.43350029 8.61899948 0.00800000 175 171 185 20042
6.43274975 8.61800003 0.00900000 175 171 185 20953
6.43350029 8.61899948 0.01000000 203 203 215 20717
6.43300009 8.61849976 0.01100000 203 203 215 20875
6.43274975 8.61800003 0.01200000 203 203 215 20642
6.43200016 8.61725044 0.01300000 203 203 215 20414
6.43175030 8.61649990 0.01700000 204 210 222 20192
6.43099976 8.61574936 0.01800000 204 210 222 20339
6.43149996 8.61625004 0.01900000 198 208 220 20796
6.43125010 8.61600018 0.02000000 198 208 220 20796
6.43074989 8.61524963 0.02100000 198 208 220 20339
6.43099976 8.61549950 0.02200000 198 208 220 20414
6.43074989 8.61549950 0.02400000 196 210 221 19075
6.43074989 8.61524963 0.02500000 196 210 221 19342
6.43050003 8.61499977 0.02600000 196 210 221 19689
6.43025017 8.61450005 0.02700000 196 210 221 19689
6.43050003 8.61474991 0.02800000 200 217 227 20046
6.43000031 8.61425018 0.02900000 200 217 227 20192
6.42974997 8.61400032 0.03000000 200 217 227 20489
6.42924976 8.61324978 0.03100000 200 217 227 20267
6.42899990 8.61324978 0.03300000 195 209 218 20192
6.42899990 8.61299992 0.03400000 195 209 218 20267
6.42899990 8.61324978 0.03500000 195 209 218 20489
6.42875004 8.61275005 0.03600000 195 209 218 20046
6.42850018 8.61250019 0.03700000 197 210 218 19621
6.42850018 8.61250019 0.03800000 197 210 218 19210
6.42749977 8.61124992 0.03900000 197 210 218 19278
6.42799997 8.61174965 0.04000000 197 210 218 20339
6.42749977 8.61100006 0.04300000 201 210 217 20121
6.42700005 8.61050034 0.04400000 201 210 217 19903
6.42724991 8.61075020 0.04500000 201 210 217 20046
6.42724991 8.61075020 0.04600000 201 206 210 17235
6.42700005 8.61050034 0.04700000 201 206 210 12082
6.42624998 8.60925007 0.04800000 201 206 210 6414
6.44624996 8.63425064 -0.06150000 140 128 150 9803
6.44549990 8.63350010 -0.06050000 140 128 150 14435
6.44575024 8.63374996 -0.05950000 140 128 150 17389
6.44549990 8.63350010 -0.05850000 140 128 150 19678
6.44600010 8.63399982 -0.05750000 140 128 150 20632
6.44575024 8.63350010 -0.05650000 188 185 204 20407
6.44499969 8.63274956 -0.05550000 188 185 204 19960
6.44449997 8.63199997 -0.05450000 188 185 204 19539
6.44474983 8.63224983 -0.05350000 188 185 204 19750
6.44449997 8.63199997 -0.05250000 195 198 215 20635
6.44499969 8.63274956 -0.05150000 195 198 215 21267
6.44474983 8.63249969 -0.05050000 195 198 215 21350
6.44449997 8.63199997 -0.04950000 195 198 215 20867
6.44425011 8.63175011 -0.04850000 195 198 215 20407
6.44374990 8.63125038 -0.04750000 184 191 207 20710
6.44324970 8.63049984 -0.04550000 184 191 207 20635
6.44324970 8.63024998 -0.04450000 184 191 207 21189
6.44350004 8.63075066 -0.04350000 191 203 215 21857
6.44324970 8.63024998 -0.04250000 191 203 215 21189
6.44274998 8.62974930 -0.04150000 191 203 215 19821
6.44225025 8.62899971 -0.04050000 191 203 215 19271
6.44225025 8.62899971 -0.03950000 191 203 215 19610
6.44175005 8.62825012 -0.03550000 190 204 215 19271
6.44199991 8.62849998 -0.03450000 193 205 217 20257
6.44175005 8.62825012 -0.03350000 193 205 217 19750
6.44149971 8.62800026 -0.03250000 193 205 217 19753
6.44175005 8.62825012 -0.03150000 193 205 217 19471
6.44099998 8.62750053 -0.02950000 196 204 217 20110
6.44024992 8.62624931 -0.02850000 196 204 217 20185
6.44000006 8.62599945 -0.02750000 196 204 217 20114
6.43974972 8.62574959 -0.02650000 196 204 217 19896
6.43974972 8.62574959 -0.02550000 198 201 216 20332
6.44000006 8.62599945 -0.02450000 198 201 216 20260
6.43974972 8.62574959 -0.02350000 198 201 216 19821
6.43900013 8.62475014 -0.02250000 198 201 216 19967
6.43924999 8.62500000 -0.02150000 198 201 216 19967
6.43974972 8.62549973 -0.02050000 204 203 219 19821
6.43924999 8.62500000 -0.01950000 204 203 219 19821
6.43924999 8.62475014 -0.01850000 204 203 219 20332
6.43849993 8.62400055 -0.01750000 204 203 219 20950
6.43825006 8.62349987 -0.01650000 208 204 221 19896
6.43849993 8.62375069 -0.01550000 208 204 221 19339
6.43774986 8.62300014 -0.01450000 208 204 221 18435
6.43825006 8.62349987 -0.01350000 208 204 221 17339
6.43849993 8.62375069 -0.01250000 208 204 221 15667
6.43725014 8.62249947 -0.01050000 201 194 212 9278
6.43725014 8.62249947 -0.00950000 201 194 212 5892
6.43725014 8.62199974 -0.00850000 201 194 212 3585
6.43725014 8.62224960 -0.00650000 191 182 199 1875
6.43624973 8.62100029 -0.00550000 191 182 199 2107
6.43599987 8.62075043 -0.00350000 191 182 199 6982
6.43650007 8.62150002 -0.00250000 140 132 147 11789
6.43624973 8.62100029 -0.00150000 140 132 147 15492
6.43575001 8.61999989 0.00025000 140 132 147 19275
6.43550014 8.61975002 0.00125000 176 170 182 20639
6.43525028 8.61950016 0.00225000 176 170 182 20717
6.43525028 8.61975002 0.00325000 176 170 182 20639
6.43475008 8.61899948 0.00425000 176 170 182 20335
6.43475008 8.61899948 0.00525000 176 170 182 20042
6.43424988 8.61824989 0.00625000 205 203 216 20414
6.43400002 8.61800003 0.00725000 205 203 216 20642
6.43400002 8.61800003 0.00925000 205 203 216 20796
6.43400002 8.61775017 0.01025000 207 209 222 20953
6.43375015 8.61750031 0.01125000 207 209 222 20717
6.43375015 8.61775017 0.01225000 207 209 222 20414
6.43274975 8.61649990 0.01325000 207 209 222 19971
6.43274975 8.61649990 0.01525000 199 207 220 20042
6.43274975 8.61625004 0.01625000 199 207 220 19971
6.43249989 8.61600018 0.01725000 199 207 220 19900
6.43274975 8.61649990 0.01925000 198 210 222 20264
6.43175030 8.61499977 0.02025000 198 210 222 19757
6.43149996 8.61474991 0.02125000 198 210 222 19828
6.43175030 8.61499977 0.02225000 198 210 222 19689
6.43175030 8.61474991 0.02325000 198 210 222 19010
6.43099976 8.61375046 0.02525000 196 213 223 19075
6.43099976 8.61400032 0.02625000 196 213 223 19410
6.43125010 8.61450005 0.02825000 191 208 218 19617
6.43050003 8.61324978 0.03125000 191 208 218 19689
6.43025017 8.61299992 0.03225000 191 208 218 20046
6.42950010 8.61199951 0.03325000 188 205 215 20121
6.43025017 8.61299992 0.03425000 188 205 215 19903
6.43000031 8.61250019 0.03525000 188 205 215 20046
6.43000031 8.61250019 0.03625000 188 205 215 19760
6.42899990 8.61124992 0.03725000 196 209 218 19010
6.42899990 8.61149979 0.03825000 196 209 218 18503
6.42899990 8.61124992 0.03925000 196 209 218 19078
6.42875004 8.61100006 0.04125000 196 209 218 20492
6.42799997 8.61000061 0.04425000 197 206 213 20342
6.42799997 8.61000061 0.04525000 197 206 213 19550
6.42799997 8.60974979 0.04725000 202 205 212 11721
6.42749977 8.60925007 0.04825000 202 205 212 6057
6.44649982 8.63325024 -0.06075000 140 128 150 14210
6.44624996 8.63274956 -0.05875000 140 128 150 19678
6.44624996 8.63274956 -0.05775000 140 128 150 20478
6.44600010 8.63249969 -0.05675000 188 185 204 20557
6.44600010 8.63224983 -0.05575000 188 185 204 20107
6.44575024 8.63224983 -0.05475000 188 185 204 19960
6.44525003 8.63150024 -0.05375000 188 185 204 19678
6.44575024 8.63199997 -0.05275000 195 198 215 19817
6.44525003 8.63125038 -0.04875000 195 198 215 21025
6.44449997 8.63024998 -0.04775000 184 191 207 20867
6.44449997 8.63024998 -0.04675000 184 191 207 20635
6.44400024 8.62974930 -0.04575000 184 191 207 20871
6.44425011 8.63000011 -0.04475000 184 191 207 21435
6.44374990 8.62924957 -0.04375000 191 203 215 21271
6.44425011 8.63024998 -0.04275000 191 203 215 20710
6.44374990 8.62924957 -0.04175000 191 203 215 19335
6.44350004 8.62924957 -0.04075000 191 203 215 19003
6.44299984 8.62849998 -0.03975000 191 203 215 20039
6.44274998 8.62825012 -0.03775000 190 204 215 20039
6.44250011 8.62775040 -0.03675000 190 204 215 19200
6.44250011 8.62750053 -0.03575000 190 204 215 18939
6.44199991 8.62699986 -0.03475000 193 205 217 19614
6.44199991 8.62699986 -0.03375000 193 205 217 19753
6.44225025 8.62750053 -0.03275000 193 205 217 20407
6.44175005 8.62674999 -0.03175000 193 205 217 20257
6.44199991 8.62699986 -0.03075000 193 205 217 20110
6.44124985 8.62599945 -0.02975000 196 204 217 19753
6.44099998 8.62574959 -0.02875000 196 204 217 19542
6.44099998 8.62549973 -0.02775000 196 204 217 20260
6.44124985 8.62599945 -0.02675000 196 204 217 19821
6.44124985 8.62599945 -0.02575000 198 201 216 19403
6.44024992 8.62475014 -0.02475000 198 201 216 19821
6.44050026 8.62500000 -0.02375000 198 201 216 20114
6.44000006 8.62450027 -0.02275000 198 201 216 20114
6.44050026 8.62524986 -0.02175000 198 201 216 19896
6.44000006 8.62425041 -0.02075000 204 203 219 19967
6.44024992 8.62475014 -0.01975000 204 203 219 20185
6.43924999 8.62349987 -0.01875000 204 203 219 19896
6.43875027 8.62274933 -0.01675000 208 204 221 19825
6.43949986 8.62375069 -0.01575000 208 204 221 19339
6.43900013 8.62325001 -0.01475000 208 204 221 19203
6.43900013 8.62300014 -0.01375000 208 204 221 18435
6.43900013 8.62300014 -0.01275000 208 204 221 16964
6.43849993 8.62249947 -0.01175000 201 194 212 14828
6.43825006 8.62224960 -0.01075000 201 194 212 13014
6.43875027 8.62274933 -0.00975000 201 194 212 9600
6.43825006 8.62199974 -0.00875000 201 194 212 5796
6.43774986 8.62150002 -0.00775000 191 182 199 3482
6.43700027 8.62025070 -0.00475000 191 182 199 5292
6.43700027 8.62025070 -0.00275000 140 132 147 14478
6.43700027 8.62025070 -0.00175000 140 132 147 17285
6.43700027 8.62050056 -0.00075000 140 132 147 18196
6.43700027 8.62025070 0.00000000 140 132 147 19203
6.43674994 8.62025070 0.00100000 176 170 182 20114
6.43650007 8.61975002 0.00200000 176 170 182 20335
6.43650007 8.61950016 0.00300000 176 170 182 20260
6.43550014 8.61849976 0.00400000 176 170 182 20335
6.43575001 8.61874962 0.00500000 176 170 182 20189
6.43499994 8.61750031 0.00600000 205 203 216 19825
6.43550014 8.61849976 0.00700000 205 203 216 19546
6.43499994 8.61750031 0.00800000 205 203 216 19900
6.43525028 8.61800003 0.00900000 205 203 216 20117
6.43499994 8.61775017 0.01000000 207 209 222 19971
6.43449974 8.61725044 0.01100000 207 209 222 20489
6.43475008 8.61725044 0.01200000 207 209 222 20117
6.43375015 8.61600018 0.01300000 207 209 222 19971
6.43350029 8.61574936 0.01400000 207 209 222 19828
6.43350029 8.61549950 0.01600000 199 207 220 19550
6.43375015 8.61600018 0.01700000 199 207 220 20117
6.43350029 8.61549950 0.01900000 198 210 222 20339
6.43350029 8.61549950 0.02000000 198 210 222 19971
6.43249989 8.61450005 0.02100000 198 210 222 20489
6.43200016 8.61375046 0.02200000 198 210 222 20489
6.43249989 8.61425018 0.02300000 198 210 222 19342
6.43200016 8.61375046 0.02500000 196 213 223 18628
6.43225002 8.61400032 0.02600000 196 213 223 20046
6.43200016 8.61350060 0.02700000 196 213 223 20339
6.43175030 8.61350060 0.02800000 191 208 218 19760
6.43149996 8.61299992 0.03000000 191 208 218 19075
6.43149996 8.61299992 0.03100000 191 208 218 19828
6.43149996 8.61275005 0.03200000 191 208 218 20117
6.43074989 8.61224937 0.03300000 188 205 215 20339
6.43050003 8.61174965 0.03400000 188 205 215 20192
6.43000031 8.61100006 0.03500000 188 205 215 20046
6.43025017 8.61124992 0.03600000 188 205 215 19971
6.43000031 8.61100006 0.03800000 196 209 218 17960
6.42974997 8.61050034 0.03900000 196 209 218 18321
6.42974997 8.61050034 0.04100000 196 209 218 19210
6.42974997 8.61075020 0.04200000 197 206 213 19550
6.42875004 8.60925007 0.04300000 197 206 213 19278
6.42899990 8.60949993 0.04400000 197 206 213 19692
6.42749977 8.60774994 0.04800000 202 205 212 7117
6.44750023 8.63299942 -0.06150000 140 128 150 10692
6.44724989 8.63224983 -0.05950000 140 128 150 18432
6.44724989 8.63224983 -0.05850000 140 128 150 19817
6.44700003 8.63199997 -0.05750000 140 128 150 21107
6.44674969 8.63175011 -0.05650000 188 185 204 21432
6.44649982 8.63125038 -0.05350000 188 185 204 19539
6.44600010 8.63049984 -0.05250000 195 198 215 20328
6.44649982 8.63150024 -0.05150000 195 198 215 21189
6.44624996 8.63125038 -0.04850000 195 198 215 21189
6.44600010 8.63075066 -0.04750000 184 191 207 20867
