//X Y Z R G B Intensity
-2.71659994 -2.31240010 0.31299999 242 247 250 50241
-2.71729994 -2.31299996 0.31410000 242 247 250 50202
-2.71600008 -2.31200004 0.31500000 242 247 250 50280
-2.71679997 -2.31259990 0.31610000 242 247 250 50298
-2.71619987 -2.31209993 0.31700000 242 247 250 50318
-2.71580005 -2.31180000 0.31799999 242 247 250 50399
-2.71619987 -2.31209993 0.31900001 242 247 250 50460
-2.71580005 -2.31180000 0.31999999 242 247 250 50339
-2.71499991 -2.31110001 0.32089999 242 247 250 50132
-2.71510005 -2.31119990 0.32190001 242 247 250 50223
-2.71560001 -2.31159997 0.32300001 242 247 250 50319
-2.71499991 -2.31110001 0.32390001 242 247 250 50223
-2.71499991 -2.31110001 0.32490000 242 247 250 50301
-2.71449995 -2.31069994 0.32589999 242 247 250 50321
-2.71409988 -2.31029987 0.32679999 242 247 250 50322
-2.71440005 -2.31060004 0.32890001 242 247 250 50262
-2.71339989 -2.30970001 0.32980001 242 247 250 50284
-2.71370006 -2.30999994 0.33080000 242 247 250 50303
-2.71250010 -2.30889988 0.33170000 242 247 250 50191
-2.71309996 -2.30949998 0.33270001 242 248 248 50284
-2.71259999 -2.30909991 0.33370000 242 248 248 50425
-2.71199989 -2.30859995 0.33460000 242 248 248 50596
-2.71180010 -2.30839992 0.33660001 242 247 250 50326
-2.71110010 -2.30780005 0.33750001 242 247 250 50469
-2.71140003 -2.30809999 0.33860001 242 247 250 50386
-2.71129990 -2.30800009 0.33960000 242 247 250 50307
-2.71079993 -2.30749989 0.34050000 242 247 250 50230
-2.71070004 -2.30749989 0.34150001 242 247 251 50308
-2.71110010 -2.30769992 0.34250000 242 247 251 50427
-2.71029997 -2.30710006 0.34349999 242 247 251 50347
-2.71040010 -2.30719995 0.34450001 245 250 254 50308
-2.70970011 -2.30660009 0.34540001 245 250 254 50349
-2.70959997 -2.30649996 0.34740001 243 248 252 50348
-2.70970011 -2.30660009 0.34840000 243 248 252 50388
-2.70919991 -2.30609989 0.34930000 237 242 245 50349
-2.70849991 -2.30559993 0.35030001 236 241 244 50331
-2.70830011 -2.30539989 0.35120001 236 241 244 48857
-2.70860004 -2.30570006 0.35229999 239 245 245 43092
-2.70869994 -2.30579996 0.35330001 238 244 244 33935
-2.70770001 -2.30489993 0.35420001 238 244 244 21928
-2.70580006 -2.30329990 0.36399999 79 84 114 4110
-2.70639992 -2.30380011 0.36510000 84 89 119 7607
-2.70550013 -2.30299997 0.36690000 96 101 131 22300
-2.70519996 -2.30279994 0.36890000 138 144 170 39457
-2.70539999 -2.30290008 0.36989999 184 190 212 47585
-2.70449996 -2.30220008 0.37079999 229 234 253 50317
-2.70499992 -2.30259991 0.37189999 229 234 253 50258
-2.70350003 -2.30130005 0.37270001 241 247 255 50261
-2.70449996 -2.30220008 0.37380001 236 243 251 50297
-2.70389986 -2.30170012 0.37480000 236 243 251 50148
-2.70389986 -2.30170012 0.37580001 234 242 245 50222
-2.70289993 -2.30080009 0.37760001 237 246 245 50300
-2.70350003 -2.30130005 0.37869999 238 247 246 50480
-2.70179987 -2.29990005 0.37950000 242 248 248 50484
-2.70230007 -2.30030012 0.38049999 242 248 248 50482
-2.70169997 -2.29979992 0.38150001 242 248 248 50547
-2.70130014 -2.29940009 0.38240001 242 248 248 50570
-2.70239997 -2.30030012 0.38360000 242 248 248 50461
-2.70200014 -2.30010009 0.38450000 242 248 248 50379
-2.70120001 -2.29940009 0.38540000 242 248 248 50361
-2.70070004 -2.29900002 0.38640001 242 248 248 50485
-2.70090008 -2.29909992 0.38839999 242 247 250 50264
-2.70079994 -2.29900002 0.38940001 242 247 250 50342
-2.70060015 -2.29879999 0.39129999 243 248 251 50591
-2.69969988 -2.29809999 0.39320001 243 248 251 50465
-2.69939995 -2.29780006 0.39420000 243 248 251 50404
-2.69860005 -2.29710007 0.39510000 243 248 251 50552
-2.69950008 -2.29789996 0.39620000 243 248 251 50528
-2.69889998 -2.29740000 0.39809999 243 249 249 50508
-2.69779992 -2.29640007 0.40000001 243 249 249 50596
-2.69819999 -2.29679990 0.40099999 243 249 249 50446
-2.69810009 -2.29670000 0.40200001 243 249 249 50365
-2.69749999 -2.29620004 0.40300000 244 248 251 50427
-2.69770002 -2.29640007 0.40400001 244 248 251 50406
-2.69729996 -2.29609990 0.40490001 244 248 251 50447
-2.69700003 -2.29579997 0.40790001 244 248 251 50553
-2.69560003 -2.29460001 0.40869999 244 248 251 50622
-2.69619989 -2.29509997 0.40979999 244 248 251 50408
-2.69619989 -2.29509997 0.41080001 244 248 251 50512
-2.69540000 -2.29439998 0.41270000 244 247 252 50252
-2.71969986 -2.31369996 0.30680001 200 201 229 50353
-2.71969986 -2.31380010 0.30779999 200 201 229 50393
-2.71889997 -2.31310010 0.30870000 239 241 255 50395
-2.71880007 -2.31299996 0.30970001 242 246 255 50238
-2.71770000 -2.31200004 0.31060001 242 246 255 50337
-2.71780014 -2.31209993 0.31160000 242 247 250 50438
-2.71780014 -2.31209993 0.31259999 242 247 250 50298
-2.71790004 -2.31220007 0.31459999 242 247 250 50278
-2.71780014 -2.31209993 0.31560001 242 247 250 50356
-2.71679997 -2.31130004 0.31750000 242 247 250 50359
-2.71640015 -2.31089997 0.31950000 242 247 250 50359
-2.71600008 -2.31060004 0.32040000 242 247 250 50243
-2.71580005 -2.31040001 0.32139999 242 247 250 50281
-2.71600008 -2.31060004 0.32249999 242 247 250 50380
-2.71600008 -2.31060004 0.32350001 242 247 250 50223
-2.71549988 -2.31019998 0.32440001 242 247 250 50262
-2.71569991 -2.31029987 0.32640001 242 247 250 50400
-2.71499991 -2.30979991 0.32730001 242 247 250 50244
-2.71510005 -2.30979991 0.32839999 242 247 250 50340
-2.71469998 -2.30949998 0.32929999 242 247 250 50485
-2.71429992 -2.30909991 0.33129999 242 248 248 50226
-2.71329999 -2.30830002 0.33320001 242 248 246 50384
-2.71259999 -2.30769992 0.33410001 242 248 246 50468
-2.71289992 -2.30789995 0.33510000 242 248 246 50488
-2.71269989 -2.30769992 0.33610001 242 248 248 50306
-2.71269989 -2.30769992 0.33710000 242 247 250 50509
-2.71250010 -2.30760002 0.33910000 242 247 251 50467
-2.71180010 -2.30699992 0.34000000 242 247 253 50268
-2.71120000 -2.30649996 0.34099999 242 247 253 50175
-2.71140003 -2.30669999 0.34200001 242 246 255 50138
-2.71110010 -2.30640006 0.34299999 242 246 255 50213
-2.71140003 -2.30669999 0.34500000 248 252 255 50249
-2.71059990 -2.30599999 0.34689999 239 244 250 50308
-2.71029997 -2.30570006 0.34790000 236 241 244 50329
-2.71020007 -2.30559993 0.34889999 242 248 248 50348
-2.70970011 -2.30530000 0.34979999 242 248 248 50310
-2.70970011 -2.30520010 0.35080001 245 251 247 50535
-2.70939994 -2.30489993 0.35179999 241 248 241 50370
-2.70889997 -2.30450010 0.35370001 236 243 235 38092
-2.70889997 -2.30450010 0.35470000 233 242 239 27371
-2.70889997 -2.30450010 0.35569999 233 242 239 16625
-2.70849991 -2.30419993 0.35670000 223 232 247 9314
-2.70720005 -2.30310011 0.36050001 90 97 125 2678
-2.70589995 -2.30200005 0.36440000 79 86 115 12217
-2.70620012 -2.30220008 0.36539999 104 111 140 20110
-2.70620012 -2.30229998 0.36640000 132 137 166 28014
-2.70539999 -2.30159998 0.36730000 132 137 166 36896
-2.70609999 -2.30220008 0.36840001 189 195 221 45335
-2.70589995 -2.30200005 0.36939999 218 225 244 50146
-2.70480013 -2.30110002 0.37029999 218 225 244 50222
-2.70499992 -2.30119991 0.37130001 239 245 255 50337
-2.70539999 -2.30159998 0.37230000 237 244 254 50478
-2.70499992 -2.30119991 0.37329999 237 244 254 50397
-2.70440006 -2.30069995 0.37419999 236 244 247 50279
-2.70469999 -2.30100012 0.37529999 244 253 250 50356
-2.70459986 -2.30089998 0.37619999 244 253 250 50278
-2.70410013 -2.30040002 0.37720001 245 254 249 50279
-2.70350003 -2.29990005 0.37810001 238 244 240 50482
-2.70429993 -2.30060005 0.37920001 238 244 240 50501
-2.70270014 -2.29929996 0.38000000 242 248 246 50590
-2.70280004 -2.29940009 0.38100001 242 248 248 50462
-2.70239997 -2.29900002 0.38299999 242 248 248 50462
-2.70219994 -2.29890013 0.38389999 242 248 248 50401
-2.70149994 -2.29820013 0.38479999 242 248 248 50362
-2.70210004 -2.29879999 0.38690001 242 247 250 50321
-2.70179987 -2.29850006 0.38789999 242 247 250 50302
-2.70160007 -2.29830003 0.38890001 242 247 250 50302
-2.70149994 -2.29820013 0.39089999 242 247 250 50591
-2.70099998 -2.29780006 0.39179999 243 248 251 50423
-2.70060015 -2.29750013 0.39379999 243 248 251 50506
-2.69959998 -2.29660010 0.39559999 243 248 251 50364
-2.70009995 -2.29699993 0.39770001 243 249 249 50571
-2.69959998 -2.29660010 0.39860001 243 249 249 50551
-2.69969988 -2.29670000 0.39960000 243 249 249 50572
-2.69939995 -2.29649997 0.40059999 243 249 249 50572
-2.69779992 -2.29509997 0.40239999 243 249 249 50428
-2.69849992 -2.29570007 0.40349999 243 247 250 50552
-2.69860005 -2.29579997 0.40450001 243 247 250 50406
-2.69779992 -2.29509997 0.40540001 243 247 250 50327
-2.69810009 -2.29539990 0.40640000 243 247 250 50447
-2.69679999 -2.29419994 0.40830001 243 247 250 50555
-2.69749999 -2.29489994 0.40939999 243 247 250 50490
-2.69740009 -2.29469991 0.41040000 243 247 250 50448
-2.69639993 -2.29390001 0.41119999 243 247 250 50450
-2.69610000 -2.29369998 0.41220000 243 246 251 50349
-2.72070003 -2.31330013 0.30730000 206 205 236 50332
-2.72029996 -2.31299996 0.30829999 239 241 255 50313
-2.71959996 -2.31240010 0.31119999 242 247 250 50276
-2.71939993 -2.31229997 0.31220001 242 247 250 50218
-2.71860003 -2.31159997 0.31310001 242 247 250 50220
-2.71759987 -2.31069994 0.31500000 242 247 250 50204
-2.71759987 -2.31069994 0.31600001 242 247 250 50185
-2.71840000 -2.31139994 0.31709999 242 247 250 50220
-2.71840000 -2.31130004 0.31810001 242 247 250 50040
-2.71759987 -2.31069994 0.31909999 242 247 250 50129
-2.71740007 -2.31049991 0.31999999 242 247 250 50318
-2.71700001 -2.31019998 0.32100001 242 247 250 50280
-2.71700001 -2.31019998 0.32300001 242 247 250 50204
-2.71619987 -2.30949998 0.32490000 242 247 250 50281
-2.71539998 -2.30879998 0.32580000 242 247 250 50422
-2.71580005 -2.30920005 0.32690001 242 247 250 50421
-2.71490002 -2.30839992 0.32780001 242 247 250 50363
-2.71519995 -2.30859995 0.32879999 242 247 250 50464
-2.71549988 -2.30889988 0.33090001 242 247 250 50463
-2.71530008 -2.30870008 0.33180001 242 248 248 50263
-2.71350002 -2.30719995 0.33360001 242 248 246 50385
-2.71409988 -2.30769992 0.33469999 242 248 246 50384
-2.71320009 -2.30690002 0.33660001 242 248 248 50447
-2.71350002 -2.30719995 0.33770001 242 247 250 50344
-2.71329999 -2.30710006 0.33860001 242 247 253 50530
-2.71320009 -2.30690002 0.33960000 242 247 253 50467
-2.71320009 -2.30690002 0.34060001 242 246 255 50325
-2.71269989 -2.30649996 0.34160000 242 246 255 50306
-2.71180010 -2.30579996 0.34250000 242 246 255 50347
-2.71269989 -2.30649996 0.34360000 242 246 255 50406
-2.71210003 -2.30599999 0.34450001 244 248 255 50387
-2.71169996 -2.30570006 0.34549999 244 248 255 50367
-2.71169996 -2.30570006 0.34750000 239 244 247 50387
-2.71099997 -2.30509996 0.34840000 239 244 247 50368
-2.71090007 -2.30500007 0.34940001 244 250 248 50513
-2.71050000 -2.30469990 0.35040000 247 254 247 50535
-2.71079993 -2.30489993 0.35139999 247 254 247 50512
-2.71050000 -2.30460000 0.35240000 244 252 239 50290
-2.71000004 -2.30419993 0.35330001 239 247 232 47717
-2.71000004 -2.30419993 0.35429999 239 247 232 40428
-2.70959997 -2.30390000 0.35519999 234 244 236 30014
-2.70860004 -2.30299997 0.35609999 240 249 255 20000
-2.70869994 -2.30310011 0.35710001 240 249 255 11696
-2.70810008 -2.30259991 0.35910001 169 179 206 3396
-2.70799994 -2.30250001 0.36109999 123 133 160 3414
-2.70860004 -2.30299997 0.36219999 95 104 133 4435
-2.70700002 -2.30170012 0.36500001 150 157 186 24928
-2.70620012 -2.30100012 0.36690000 190 197 225 40485
-2.70630002 -2.30110002 0.36790001 227 233 255 48525
-2.70650005 -2.30130005 0.36890000 227 233 255 50258
-2.70630002 -2.30110002 0.36989999 233 240 255 50336
-2.70569992 -2.30049992 0.37079999 238 244 255 50298
-2.70609999 -2.30089998 0.37189999 238 244 255 50416
-2.70550013 -2.30040002 0.37279999 238 245 251 50377
-2.70580006 -2.30069995 0.37380001 243 249 249 50457
-2.70529985 -2.30019999 0.37480000 243 249 249 50298
-2.70510006 -2.30010009 0.37570000 247 253 249 50318
-2.70529985 -2.30030012 0.37680000 246 254 243 50397
-2.70469999 -2.29970002 0.37770000 246 254 243 50438
-2.70410013 -2.29920006 0.37860000 239 246 238 50523
-2.70440006 -2.29949999 0.37970001 242 248 246 50378
-2.70459986 -2.29970002 0.38069999 242 248 246 50377
-2.70420003 -2.29929996 0.38159999 242 247 250 50419
-2.70389986 -2.29900002 0.38260001 242 247 250 50481
-2.70300007 -2.29820013 0.38350001 242 247 250 50421
-2.70330000 -2.29850006 0.38450000 242 247 250 50568
-2.70289993 -2.29820013 0.38550001 242 247 251 50547
-2.70230007 -2.29760003 0.38740000 242 247 251 50283
-2.70190001 -2.29740000 0.38830000 242 247 251 50422
-2.70149994 -2.29699993 0.38929999 242 247 251 50465
-2.70219994 -2.29760003 0.39140001 243 248 252 50207
-2.70149994 -2.29699993 0.39330000 243 248 252 50464
-2.70179987 -2.29719996 0.39430001 243 248 251 50591
-2.70140004 -2.29690003 0.39530000 243 248 251 50681
-2.70009995 -2.29579997 0.39610001 243 248 251 50508
-2.70060015 -2.29620004 0.39820001 243 249 249 50444
-2.69939995 -2.29519987 0.39899999 243 249 249 50447
-2.69910002 -2.29500008 0.40000001 243 249 247 50531
-2.70000005 -2.29570007 0.40110001 243 249 247 50466
-2.69939995 -2.29519987 0.40200001 243 249 249 50345
-2.69959998 -2.29539990 0.40310001 243 247 250 50325
-2.69889998 -2.29480004 0.40500000 243 247 250 50346
-2.69880009 -2.29469991 0.40599999 243 247 250 50406
-2.69770002 -2.29379988 0.40680000 243 247 250 50348
-2.69840002 -2.29439998 0.40790001 243 247 250 50531
-2.69770002 -2.29369998 0.40880001 243 247 250 50470
-2.69740009 -2.29349995 0.40979999 243 247 250 50368
-2.69759989 -2.29369998 0.41080001 243 247 250 50388
-2.69689989 -2.29309988 0.41170001 243 247 250 50471
-2.69720006 -2.29329991 0.41270000 243 247 250 50251
-2.72149992 -2.31259990 0.30680001 206 205 236 50412
-2.72060013 -2.31180000 0.30770001 206 205 236 50394
-2.72090006 -2.31209993 0.30980000 242 246 255 50353
-2.71980000 -2.31119990 0.31070000 242 246 255 50219
-2.72009993 -2.31150007 0.31169999 242 247 250 50238
-2.71990013 -2.31130004 0.31270000 242 247 250 50109
-2.71969986 -2.31110001 0.31369999 242 247 250 50375
-2.71930003 -2.31080008 0.31459999 242 247 250 50396
-2.71920013 -2.31069994 0.31659999 242 247 250 50297
-2.71889997 -2.31040001 0.31760001 242 247 250 50128
-2.71819997 -2.30979991 0.31850001 242 247 250 50094
-2.71850014 -2.31010008 0.31959999 242 247 250 50259
-2.71840000 -2.30999994 0.32060000 242 247 250 50298
-2.71829987 -2.30990005 0.32159999 242 247 250 50259
-2.71710014 -2.30889988 0.32240000 242 247 250 50132
-2.71780014 -2.30940008 0.32350001 242 247 250 50318
-2.71659994 -2.30839992 0.32539999 242 247 250 50548
-2.71659994 -2.30839992 0.32640001 242 247 250 50681
-2.71569991 -2.30769992 0.32730001 242 247 250 50383
-2.71609998 -2.30800009 0.32830000 242 247 250 50263
-2.71530008 -2.30730009 0.32920000 242 247 250 50265
-2.71569991 -2.30769992 0.33030000 242 247 250 50485
-2.71609998 -2.30809999 0.33140001 242 248 248 50548
-2.71460009 -2.30679989 0.33219999 242 248 248 50305
-2.71580005 -2.30780005 0.33329999 242 248 246 50244
-2.71530008 -2.30739999 0.33530000 242 248 246 50549
-2.71510005 -2.30719995 0.33629999 242 248 248 50423
-2.71460009 -2.30679989 0.33919999 242 247 253 50246
-2.71370006 -2.30599999 0.34009999 242 246 255 50286
-2.71399999 -2.30620003 0.34110001 242 246 255 50384
-2.71309996 -2.30550003 0.34200001 242 246 255 50510
-2.71350002 -2.30579996 0.34310001 242 246 255 50467
-2.71269989 -2.30509996 0.34500000 244 248 255 50327
-2.71280003 -2.30530000 0.34599999 240 245 251 50346
-2.71169996 -2.30430007 0.34689999 240 245 251 50389
-2.71210003 -2.30460000 0.34790000 239 244 247 50367
-2.71120000 -2.30390000 0.34880000 244 250 248 50330
-2.71180010 -2.30439997 0.34990001 244 250 248 50470
-2.71160007 -2.30419993 0.35089999 247 254 247 50428
-2.71090007 -2.30360007 0.35179999 244 252 239 50390
-2.71129990 -2.30399990 0.35389999 239 247 232 50086
-2.71020007 -2.30299997 0.35470000 234 244 236 44485
-2.71009994 -2.30290008 0.35569999 234 244 236 34125
-2.70939994 -2.30240011 0.35659999 240 249 255 23550
-2.70889997 -2.30189991 0.35859999 213 223 248 7425
-2.70799994 -2.30119991 0.36250001 95 104 133 13471
-2.70810008 -2.30119991 0.36449999 108 115 144 29885
-2.70830011 -2.30139995 0.36550000 150 157 186 39192
-2.70790005 -2.30110002 0.36649999 190 197 225 46510
-2.70709991 -2.30040002 0.36739999 190 197 225 50110
-2.70729995 -2.30060005 0.36840001 227 233 255 50238
-2.70709991 -2.30040002 0.36939999 233 240 255 50355
-2.70679998 -2.30010009 0.37029999 233 240 255 50542
-2.70709991 -2.30040002 0.37140000 238 244 255 50355
-2.70650005 -2.29979992 0.37230000 238 245 251 50202
-2.70650005 -2.29979992 0.37329999 238 245 251 50183
-2.70670009 -2.29999995 0.37430000 243 249 249 50277
-2.70550013 -2.29900002 0.37520000 247 253 249 50358
-2.70650005 -2.29990005 0.37630001 247 253 249 50296
-2.70519996 -2.29879999 0.37720001 246 254 243 50378
-2.70519996 -2.29879999 0.37819999 239 246 238 50419
-2.70480013 -2.29839993 0.38010001 242 248 246 50378
-2.70480013 -2.29850006 0.38110000 242 247 250 50378
-2.70420003 -2.29789996 0.38200000 242 247 250 50242
-2.70469999 -2.29839993 0.38310000 242 247 250 50223
-2.70330000 -2.29719996 0.38389999 242 247 250 50244
-2.70420003 -2.29789996 0.38499999 242 247 250 50419
-2.70359993 -2.29750013 0.38800001 242 247 251 50281
-2.70340014 -2.29730010 0.38900000 242 247 251 50441
-2.70330000 -2.29719996 0.38999999 242 247 251 50441
-2.70230007 -2.29629993 0.39080000 242 247 251 50283
-2.70190001 -2.29600000 0.39179999 243 248 252 50343
-2.70190001 -2.29589987 0.39269999 243 248 252 50465
-2.70200014 -2.29609990 0.39379999 243 248 252 50506
-2.70219994 -2.29620004 0.39480001 243 248 251 50614
-2.70130014 -2.29550004 0.39570001 243 248 251 50528
-2.70099998 -2.29519987 0.39660001 243 248 251 50445
-2.70079994 -2.29509997 0.39760000 243 249 249 50405
-2.70149994 -2.29559994 0.39870000 243 249 249 50527
-2.70060015 -2.29489994 0.39960000 243 249 249 50551
-2.70050001 -2.29480004 0.40059999 243 249 247 50487
-2.70020008 -2.29449987 0.40149999 243 249 249 50345
-2.70050001 -2.29480004 0.40259999 243 249 249 50344
-2.69950008 -2.29390001 0.40540001 243 247 250 50307
-2.69989991 -2.29430008 0.40650001 243 247 250 50211
-2.69919991 -2.29360008 0.40740001 243 247 250 50327
-2.69899988 -2.29349995 0.40840000 243 247 250 50327
-2.69889998 -2.29340005 0.40939999 243 247 250 50575
-2.69810009 -2.29279995 0.41029999 243 247 250 50576
-2.69860005 -2.29309988 0.41229999 243 247 250 50510
-2.72169995 -2.31159997 0.30630001 125 125 151 50393
-2.72119999 -2.31110001 0.30720001 206 210 237 50354
-2.72149992 -2.31130004 0.30829999 238 243 255 50629
-2.72119999 -2.31110001 0.30930001 238 243 255 50607
-2.72149992 -2.31139994 0.31029999 242 246 255 50294
-2.72039986 -2.31049991 0.31220001 242 247 250 50145
-2.72020006 -2.31029987 0.31320000 242 247 250 50182
-2.71990013 -2.30999994 0.31410000 242 247 250 50336
-2.71990013 -2.30999994 0.31510001 242 247 250 50397
-2.72039986 -2.31040001 0.31619999 242 247 250 50257
-2.71959996 -2.30970001 0.31709999 242 247 250 50278
-2.71939993 -2.30959988 0.31909999 242 247 250 50202
-2.71850014 -2.30879998 0.31999999 242 247 250 50299
-2.71880007 -2.30909991 0.32110000 242 247 250 50298
-2.71810007 -2.30850005 0.32400000 242 247 250 50482
-2.71720004 -2.30769992 0.32490000 242 247 250 50505
-2.71810007 -2.30850005 0.32600001 242 247 250 50502
-2.71689987 -2.30749989 0.32690001 242 247 250 50484
-2.71689987 -2.30749989 0.32890001 242 247 250 50263
-2.71700001 -2.30760002 0.32990000 242 247 250 50360
-2.71630001 -2.30699992 0.33080000 242 247 250 50571
-2.71619987 -2.30690002 0.33180001 242 247 250 50485
-2.71659994 -2.30719995 0.33289999 242 248 248 50505
-2.71619987 -2.30690002 0.33379999 242 248 248 50593
-2.71490002 -2.30579996 0.33469999 242 248 248 50573
-2.71539998 -2.30620003 0.33570001 242 248 248 50403
-2.71510005 -2.30599999 0.33669999 242 248 248 50529
-2.71440005 -2.30530000 0.33759999 242 247 250 50385
-2.71510005 -2.30590010 0.33870000 242 247 251 50343
-2.71499991 -2.30579996 0.33970001 242 247 251 50363
-2.71460009 -2.30550003 0.34070000 242 247 253 50508
-2.71350002 -2.30460000 0.34250000 242 246 255 50469
-2.71280003 -2.30399990 0.34549999 238 243 249 50449
-2.71289992 -2.30410004 0.34650001 247 252 255 50533
-2.71280003 -2.30399990 0.34750000 250 255 255 50408
-2.71289992 -2.30410004 0.34850001 250 255 255 50288
-2.71269989 -2.30390000 0.34950000 244 250 246 50250
-2.71250010 -2.30369997 0.35040000 239 246 238 50175
-2.71250010 -2.30369997 0.35139999 239 246 238 50250
-2.71180010 -2.30310011 0.35240000 241 249 238 50389
-2.71199989 -2.30329990 0.35339999 245 253 238 50450
-2.71050000 -2.30200005 0.35519999 244 254 246 44814
-2.71029997 -2.30180001 0.35620001 238 248 255 36642
-2.71009994 -2.30170012 0.35720000 238 248 255 26560
-2.70959997 -2.30130005 0.36010000 208 219 241 6432
-2.70930004 -2.30100012 0.36109999 163 173 198 11146
-2.70900011 -2.30069995 0.36510000 193 200 226 44832
-2.70849991 -2.30030012 0.36600000 193 200 226 50109
-2.70889997 -2.30060005 0.36700001 240 246 255 50333
-2.70840001 -2.30030012 0.36800000 241 248 255 50315
-2.70779991 -2.29970002 0.36989999 236 243 255 50436
-2.70840001 -2.30019999 0.37099999 238 245 255 50334
-2.70729995 -2.29929996 0.37390000 244 250 250 50335
-2.70700002 -2.29909992 0.37480000 244 250 250 50297
-2.70729995 -2.29929996 0.37590000 237 244 237 50164
-2.70639992 -2.29859996 0.37680000 238 244 234 50240
-2.70560002 -2.29789996 0.37760001 238 244 234 50460
-2.70609999 -2.29830003 0.37869999 244 249 242 50501
-2.70650005 -2.29870009 0.37979999 242 248 246 50520
-2.70580006 -2.29800010 0.38069999 242 248 246 50398
-2.70550013 -2.29780006 0.38270000 242 247 250 50241
-2.70510006 -2.29740000 0.38360000 242 247 250 50339
-2.70480013 -2.29719996 0.38560000 242 247 250 50379
-2.70459986 -2.29699993 0.38650000 242 247 250 50262
-2.70350003 -2.29600000 0.38740000 242 247 250 50322
-2.70429993 -2.29670000 0.38850001 242 247 250 50340
-2.70379996 -2.29640007 0.38940001 242 247 250 50380
-2.70410013 -2.29649997 0.39050001 242 247 250 50482
-2.70370007 -2.29629993 0.39240000 243 248 251 50568
-2.70270014 -2.29539990 0.39330000 243 248 251 50549
-2.70309997 -2.29570007 0.39440000 243 248 251 50442
-2.70219994 -2.29500008 0.39520001 243 248 251 50465
-2.70160007 -2.29439998 0.39610001 243 248 251 50487
-2.70200014 -2.29480004 0.39919999 243 249 249 50571
-2.70179987 -2.29460001 0.40120000 243 249 247 50528
-2.70090008 -2.29390001 0.40210000 243 249 249 50466
-2.70020008 -2.29320002 0.40300000 242 247 250 50327
-2.70120001 -2.29410005 0.40410000 242 247 250 50324
-2.70090008 -2.29390001 0.40509999 242 247 250 50364
-2.70029998 -2.29329991 0.40700001 242 247 250 50488
-2.69989991 -2.29299998 0.40790001 243 247 250 50386
-2.69989991 -2.29299998 0.41000000 243 247 250 50662
-2.69849992 -2.29180002 0.41069999 243 247 250 50712
-2.69860005 -2.29189992 0.41180000 243 247 250 50665
-2.69880009 -2.29200006 0.41280001 243 247 250 50348
-2.72250009 -2.31089997 0.30680001 199 207 228 50236
-2.72259998 -2.31099987 0.30779999 199 207 228 50496
-2.72250009 -2.31080008 0.30880001 234 243 255 50605
-2.72119999 -2.30979991 0.30970001 240 247 255 50499
-2.72169995 -2.31019998 0.31070000 240 247 255 50334
-2.72149992 -2.30999994 0.31169999 242 247 250 50276
-2.72200012 -2.31040001 0.31279999 242 247 250 50217
-2.72169995 -2.31019998 0.31380001 242 247 250 50162
-2.72049999 -2.30920005 0.31459999 242 247 250 50183
-2.72090006 -2.30949998 0.31569999 242 247 250 50296
-2.72099996 -2.30959988 0.31670001 242 247 250 50375
-2.72049999 -2.30920005 0.31760001 242 247 250 50258
-2.71990013 -2.30870008 0.31860000 242 247 250 50278
-2.71920013 -2.30809999 0.31950000 242 247 250 50299
-2.71950006 -2.30839992 0.32049999 242 247 250 50337
-2.71990013 -2.30859995 0.32159999 242 247 250 50397
-2.71860003 -2.30760002 0.32249999 242 247 250 50281
-2.71869993 -2.30769992 0.32350001 242 247 250 50359
-2.71939993 -2.30830002 0.32460001 242 247 250 50460
-2.71810007 -2.30710006 0.32539999 242 247 250 50569
-2.71810007 -2.30719995 0.32640001 242 247 250 50441
-2.71840000 -2.30739999 0.32740000 242 247 250 50525
-2.71850014 -2.30749989 0.32850000 242 247 250 50612
-2.71829987 -2.30730009 0.32949999 242 247 250 50419
-2.71670008 -2.30599999 0.33030000 242 247 250 50465
-2.71720004 -2.30640006 0.33230001 242 247 251 50548
-2.71679997 -2.30599999 0.33329999 242 247 253 50571
-2.71710014 -2.30629992 0.33430001 242 247 253 50526
-2.71549988 -2.30500007 0.33610001 242 247 253 50508
-2.71580005 -2.30520010 0.33719999 242 247 251 50384
-2.71609998 -2.30539989 0.33820000 242 247 251 50303
-2.71519995 -2.30469990 0.33910000 242 247 250 50467
-2.71589994 -2.30520010 0.34020001 242 247 250 50403
-2.71499991 -2.30450010 0.34110001 242 247 250 50365
-2.71440005 -2.30399990 0.34200001 242 248 248 50287
-2.71390009 -2.30360007 0.34299999 242 248 246 50449
-2.71420002 -2.30380011 0.34400001 242 248 246 50469
-2.71440005 -2.30399990 0.34509999 243 249 247 50386
-2.71370006 -2.30340004 0.34599999 242 248 244 50407
-2.71409988 -2.30380011 0.34799999 242 248 244 50468
-2.71390009 -2.30360007 0.34900001 243 249 245 50510
-2.71320009 -2.30290008 0.34990001 243 249 245 50250
-2.71370006 -2.30340004 0.35100001 242 248 244 50307
-2.71259999 -2.30250001 0.35389999 240 246 242 50368
-2.71199989 -2.30200005 0.35479999 240 249 248 50087
-2.71120000 -2.30130005 0.35569999 240 249 248 45971
-2.71180010 -2.30180001 0.35679999 235 243 254 40171
-2.71129990 -2.30130005 0.35769999 231 240 255 31932
-2.71190000 -2.30180001 0.35879999 231 240 255 21503
-2.71040010 -2.30060005 0.35960001 232 241 255 14757
-2.71029997 -2.30049992 0.36160001 213 220 239 23246
-2.70989990 -2.30019999 0.36260000 188 195 214 32535
-2.71000004 -2.30019999 0.36359999 203 210 229 42239
-2.71029997 -2.30049992 0.36460000 203 210 229 49635
-2.70980000 -2.30010009 0.36559999 232 239 255 50144
-2.71000004 -2.30030012 0.36660001 238 244 255 50217
-2.70930004 -2.29970002 0.36750001 238 244 255 50218
-2.70869994 -2.29909992 0.36840001 239 245 255 50335
-2.70959997 -2.29990005 0.36950001 238 244 255 50352
-2.70880008 -2.29920006 0.37040001 238 244 255 50200
-2.70869994 -2.29909992 0.37140000 238 242 251 50200
-2.70819998 -2.29870009 0.37340000 241 246 250 50335
-2.70830011 -2.29879999 0.37439999 244 250 250 50335
-2.70830011 -2.29879999 0.37540001 236 242 238 50540
-2.70770001 -2.29830003 0.37630001 236 242 238 50520
-2.70749998 -2.29809999 0.37729999 235 242 235 50437
-2.70709991 -2.29780006 0.37819999 245 252 245 50543
-2.70729995 -2.29789996 0.37930000 245 252 245 50478
-2.70670009 -2.29750013 0.38020000 242 248 246 50418
-2.70560002 -2.29649997 0.38100001 242 248 248 50400
-2.70550013 -2.29640007 0.38200000 242 248 248 50320
-2.70630002 -2.29710007 0.38420001 242 248 248 50377
-2.70529985 -2.29629993 0.38499999 242 248 248 50300
-2.70490003 -2.29600000 0.38600001 242 248 248 50263
-2.70469999 -2.29579997 0.38690001 242 247 250 50321
-2.70539999 -2.29629993 0.38800001 242 247 250 50399
-2.70449996 -2.29559994 0.38890001 242 247 250 50380
-2.70429993 -2.29539990 0.38990000 242 247 250 50421
-2.70469999 -2.29570007 0.39199999 242 247 250 50725
-2.70319986 -2.29449987 0.39280000 242 248 248 50403
-2.70370007 -2.29489994 0.39379999 242 248 248 50322
-2.70330000 -2.29460001 0.39480001 242 248 248 50464
-2.70379996 -2.29500008 0.39590001 242 248 248 50613
-2.70319986 -2.29449987 0.39680001 242 248 248 50548
-2.70289993 -2.29419994 0.39770001 242 248 248 50403
-2.70260000 -2.29390001 0.39870000 242 248 248 50444
-2.70300007 -2.29430008 0.39980000 242 248 248 50402
-2.70160007 -2.29309988 0.40050000 242 248 248 50640
-2.70210004 -2.29349995 0.40160000 242 248 248 50466
-2.70179987 -2.29329991 0.40259999 242 248 248 50404
-2.70109987 -2.29270005 0.40450001 243 248 251 50365
-2.70169997 -2.29320002 0.40560001 243 248 251 50424
-2.70020008 -2.29189992 0.40640000 243 248 251 50448
-2.70109987 -2.29270005 0.40750000 243 248 251 50488
-2.70090008 -2.29259992 0.40849999 243 248 251 50488
-2.70009995 -2.29180002 0.40939999 243 248 251 50641
-2.69969988 -2.29150009 0.41029999 243 248 251 50554
-2.69950008 -2.29139996 0.41130000 243 248 251 50469
-2.69919991 -2.29110003 0.41220000 243 248 251 50251
-2.69919991 -2.29110003 0.41319999 243 248 251 50034
-2.69869995 -2.29060006 0.41420001 243 248 251 42250
-2.72359991 -2.31049991 0.30939999 240 247 255 50495
-2.72309995 -2.31010008 0.31130001 242 247 250 50475
-2.72270012 -2.30979991 0.31230000 242 247 250 50373
-2.72250009 -2.30959988 0.31330001 242 247 250 50294
-2.72149992 -2.30870008 0.31420001 242 247 250 50296
-2.72230005 -2.30940008 0.31529999 242 247 250 50333
-2.72130013 -2.30859995 0.31619999 242 247 250 50437
-2.72160006 -2.30879998 0.31720001 242 247 250 50355
-2.72099996 -2.30830002 0.31810001 242 247 250 50458
-2.72060013 -2.30789995 0.31909999 242 247 250 50417
-2.72029996 -2.30769992 0.32010001 242 247 250 50240
-2.71990013 -2.30739999 0.32100001 242 247 250 50166
-2.72020006 -2.30760002 0.32210001 242 247 250 50279
-2.71990013 -2.30730009 0.32300001 242 247 250 50221
-2.71980000 -2.30730009 0.32400000 242 247 250 50279
-2.71939993 -2.30699992 0.32499999 242 247 250 50440
-2.71959996 -2.30710006 0.32600001 242 247 250 50460
-2.71930003 -2.30679989 0.32699999 242 247 250 50242
-2.71869993 -2.30640006 0.32789999 242 247 250 50525
-2.71850014 -2.30620003 0.32990000 242 247 250 50400
-2.71869993 -2.30629992 0.33090001 242 247 250 50482
-2.71790004 -2.30559993 0.33180001 242 247 251 50484
-2.71710014 -2.30500007 0.33280000 242 247 253 50465
-2.71810007 -2.30579996 0.33390000 242 247 253 50569
-2.71670008 -2.30460000 0.33469999 242 247 253 50595
-2.71700001 -2.30500007 0.33579999 242 247 253 50571
-2.71619987 -2.30419993 0.33669999 242 247 253 50551
-2.71640015 -2.30439997 0.33770001 242 247 251 50324
-2.71619987 -2.30430007 0.33870000 242 247 250 50266
-2.71640015 -2.30439997 0.33970001 242 247 250 50343
-2.71609998 -2.30410004 0.34070000 242 247 250 50266
-2.71569991 -2.30380011 0.34259999 242 248 248 50228
-2.71460009 -2.30279994 0.34450001 243 249 247 50307
-2.71539998 -2.30360007 0.34560001 243 249 247 50344
-2.71449995 -2.30279994 0.34650001 242 248 244 50448
-2.71429992 -2.30270004 0.34750000 242 248 244 50511
-2.71479988 -2.30299997 0.34860000 242 248 244 50468
-2.71399999 -2.30240011 0.34950000 243 249 245 50490
-2.71350002 -2.30200005 0.35040000 242 248 244 50328
-2.71370006 -2.30209994 0.35139999 242 248 244 50347
-2.71359992 -2.30200005 0.35240000 240 246 242 50269
-2.71350002 -2.30200005 0.35339999 240 246 242 50347
-2.71250010 -2.30110002 0.35429999 240 246 242 50310
-2.71280003 -2.30139995 0.35530001 240 249 248 50000
-2.71180010 -2.30049992 0.35620001 235 243 254 47732
-2.71190000 -2.30049992 0.35720000 235 243 254 42082
-2.71219993 -2.30080009 0.35830000 231 240 255 33564
-2.71210003 -2.30069995 0.35929999 232 241 255 22978
-2.71090007 -2.29979992 0.36510000 232 239 255 50161
-2.71000004 -2.29900002 0.36600000 232 239 255 50163
-2.71009994 -2.29900002 0.36800000 239 245 255 50218
-2.71000004 -2.29900002 0.36899999 239 245 255 50333
-2.70959997 -2.29870009 0.37000000 238 244 255 50181
-2.70889997 -2.29809999 0.37090001 238 242 251 50182
-2.70900011 -2.29809999 0.37189999 238 242 251 50238
-2.70860004 -2.29780006 0.37290001 241 246 250 50220
-2.70840001 -2.29760003 0.37380001 244 250 250 50437
-2.70830011 -2.29750013 0.37480000 244 250 250 50457
-2.70760012 -2.29699993 0.37670001 235 242 235 50438
-2.70849991 -2.29769993 0.37790000 235 242 235 50477
-2.70779991 -2.29710007 0.37979999 242 248 246 50356
-2.70650005 -2.29600000 0.38159999 242 248 248 50359
-2.70749998 -2.29690003 0.38280001 242 248 248 50396
-2.70609999 -2.29559994 0.38360000 242 248 248 50440
-2.70670009 -2.29620004 0.38460001 242 248 248 50378
-2.70639992 -2.29600000 0.38560000 242 248 248 50319
-2.70639992 -2.29589987 0.38659999 242 248 248 50299
-2.70550013 -2.29519987 0.38749999 242 247 250 50441
-2.70569992 -2.29530001 0.38850001 242 247 250 50340
-2.70519996 -2.29489994 0.38949999 242 247 250 50263
-2.70580006 -2.29539990 0.39050001 242 247 250 50439
-2.70499992 -2.29480004 0.39140001 242 247 250 50483
-2.70539999 -2.29509997 0.39250001 242 247 250 50359
-2.70469999 -2.29439998 0.39340001 242 248 248 50441
-2.70469999 -2.29449987 0.39440000 242 248 248 50525
-2.70379996 -2.29369998 0.39530000 242 248 248 50637
-2.70340014 -2.29340005 0.39620000 242 248 248 50571
-2.70359993 -2.29349995 0.39919999 242 248 248 50727
-2.70289993 -2.29299998 0.40020001 242 248 248 50660
-2.70270014 -2.29279995 0.40110001 242 248 248 50507
-2.70169997 -2.29189992 0.40300000 243 248 251 50510
-2.70219994 -2.29229999 0.40410000 243 248 251 50445
-2.70169997 -2.29189992 0.40500000 243 248 251 50530
-2.70230007 -2.29250002 0.40610000 243 248 251 50486
-2.70169997 -2.29189992 0.40700001 243 248 251 50446
-2.70120001 -2.29150009 0.40790001 243 248 251 50447
-2.70120001 -2.29150009 0.40889999 243 248 251 50552
-2.70070004 -2.29110003 0.40990001 243 248 251 50490
-2.70070004 -2.29110003 0.41090000 243 248 251 50447
-2.70039988 -2.29080009 0.41180000 243 248 251 50532
-2.70070004 -2.29110003 0.41290000 243 248 251 50287
-2.69989991 -2.29040003 0.41380000 243 248 251 47721
-2.72379994 -2.30940008 0.30880001 230 242 255 50352
-2.72350001 -2.30920005 0.30980000 240 247 253 50497
-2.72350001 -2.30909991 0.31180000 242 247 250 50373
-2.72320008 -2.30889988 0.31380001 242 247 250 50353
-2.72200012 -2.30780005 0.31459999 242 247 250 50239
-2.72090006 -2.30690002 0.31850001 242 247 250 50299
-2.72149992 -2.30739999 0.31959999 242 247 250 50239
-2.72109985 -2.30699992 0.32060000 242 247 250 50278
-2.72029996 -2.30640006 0.32150000 242 247 250 50185
-2.72000003 -2.30620003 0.32249999 242 247 250 50204
-2.72020006 -2.30629992 0.32350001 242 247 250 50399
-2.72020006 -2.30629992 0.32449999 242 247 250 50338
-2.72020006 -2.30629992 0.32550001 242 247 250 50185
-2.72060013 -2.30660009 0.32650000 242 247 250 50093
-2.71969986 -2.30590010 0.32740000 242 247 250 50300
-2.71969986 -2.30590010 0.32850000 242 247 250 50300
-2.71880007 -2.30509996 0.32929999 242 247 250 50244
-2.71930003 -2.30559993 0.33039999 242 247 250 50359
-2.71880007 -2.30509996 0.33140001 242 247 251 50381
-2.71899986 -2.30530000 0.33239999 242 247 251 50360
-2.71850014 -2.30489993 0.33329999 242 246 255 50401
-2.71860003 -2.30500007 0.33440000 242 246 255 50504
-2.71759987 -2.30410004 0.33520001 242 246 255 50529
-2.71790004 -2.30439997 0.33629999 242 247 253 50506
-2.71729994 -2.30380011 0.33719999 242 247 251 50550
-2.71710014 -2.30369997 0.33820000 242 247 251 50572
-2.71729994 -2.30380011 0.33919999 242 247 250 50383
-2.71679997 -2.30340004 0.34020001 242 248 246 50364
-2.71609998 -2.30279994 0.34110001 242 248 246 50325
-2.71589994 -2.30259991 0.34209999 242 248 244 50248
-2.71609998 -2.30279994 0.34310001 242 249 242 50154
-2.71549988 -2.30229998 0.34400001 242 249 242 50230
-2.71589994 -2.30270004 0.34509999 240 247 240 50325
-2.71580005 -2.30259991 0.34610000 241 248 241 50426
-2.71440005 -2.30139995 0.34889999 244 250 246 50368
-2.71530008 -2.30209994 0.34999999 244 250 246 50326
-2.71510005 -2.30200005 0.35100001 243 249 247 50248
-2.71409988 -2.30110002 0.35190001 242 248 248 50139
-2.71390009 -2.30100012 0.35290000 242 248 248 50140
-2.71429992 -2.30130005 0.35389999 242 248 248 50138
-2.71309996 -2.30030012 0.35479999 244 249 255 50070
-2.71329999 -2.30049992 0.35580000 244 249 255 48646
-2.71320009 -2.30040002 0.35679999 239 245 255 46464
-2.71329999 -2.30049992 0.35780001 241 248 255 39403
-2.71320009 -2.30040002 0.35879999 241 248 255 27542
-2.71239996 -2.29970002 0.35969999 239 246 255 19710
-2.71180010 -2.29920006 0.36059999 214 221 237 23732
-2.71180010 -2.29920006 0.36160001 214 221 237 35089
-2.71149993 -2.29890013 0.36260000 191 197 213 46842
-2.71129990 -2.29879999 0.36759999 237 243 255 50125
-2.71149993 -2.29890013 0.36860001 241 247 255 50254
-2.71029997 -2.29789996 0.37050000 239 246 254 50295
-2.70950007 -2.29730010 0.37140000 239 244 250 50335
-2.70959997 -2.29730010 0.37340000 242 247 250 50477
-2.70880008 -2.29660010 0.37430000 245 251 251 50437
-2.70910001 -2.29690003 0.37529999 239 245 241 50396
-2.70880008 -2.29660010 0.37830001 242 248 244 50457
-2.70849991 -2.29640007 0.37930000 242 248 244 50478
-2.70840001 -2.29640007 0.38029999 242 248 246 50416
-2.70849991 -2.29640007 0.38130000 242 248 248 50336
-2.70810008 -2.29609990 0.38220000 242 248 248 50221
-2.70729995 -2.29539990 0.38310000 242 248 248 50241
-2.70740008 -2.29539990 0.38409999 242 248 248 50338
-2.70700002 -2.29509997 0.38510001 242 248 248 50399
-2.70650005 -2.29469991 0.38600001 242 248 248 50205
-2.70700002 -2.29519987 0.38710001 242 248 248 50419
-2.70609999 -2.29439998 0.38800001 242 248 248 50504
-2.70599985 -2.29419994 0.38999999 242 248 248 50400
-2.70639992 -2.29460001 0.39100000 242 248 248 50300
-2.70560002 -2.29390001 0.39190000 243 249 249 50301
-2.70589995 -2.29419994 0.39300001 243 249 249 50482
-2.70539999 -2.29379988 0.39390001 243 249 249 50590
-2.70459986 -2.29299998 0.39480001 243 249 249 50506
-2.70519996 -2.29360008 0.39590001 243 249 249 50483
-2.70379996 -2.29239988 0.39770001 243 249 249 50507
-2.70480013 -2.29329991 0.39879999 243 249 249 50590
-2.70410013 -2.29270005 0.39969999 243 249 249 50592
-2.70379996 -2.29239988 0.40169999 243 249 249 50383
-2.70309997 -2.29180002 0.40259999 243 249 249 50324
-2.70249987 -2.29130006 0.40349999 241 249 251 50446
-2.70280004 -2.29150009 0.40560001 241 249 251 50551
-2.70270014 -2.29150009 0.40650001 241 249 251 50639
-2.70140004 -2.29040003 0.41040000 243 248 251 50575
-2.70160007 -2.29060006 0.41240001 243 248 251 50488
-2.70160007 -2.29060006 0.41339999 243 248 251 50192
-2.72539997 -2.30940008 0.30739999 189 197 216 50311
-2.72499990 -2.30900002 0.30840001 231 240 255 50215
-2.72460008 -2.30870008 0.30939999 240 247 253 50216
-2.72410011 -2.30830002 0.31029999 240 247 253 50217
-2.72410011 -2.30830002 0.31130001 242 247 250 50274
-2.72340012 -2.30769992 0.31220001 242 247 250 50395
-2.72350001 -2.30780005 0.31320000 242 247 250 50374
-2.72309995 -2.30739999 0.31520000 242 247 250 50334
-2.72340012 -2.30769992 0.31630000 242 247 250 50275
-2.72309995 -2.30739999 0.31720001 242 247 250 50374
-2.72200012 -2.30649996 0.31810001 242 247 250 50317
-2.72239995 -2.30690002 0.31920001 242 247 250 50316
-2.72180009 -2.30629992 0.32210001 242 247 250 50258
-2.72219992 -2.30669999 0.32319999 242 247 250 50296
-2.72119999 -2.30590010 0.32409999 242 247 250 50279
-2.72090006 -2.30559993 0.32499999 242 247 250 50318
-2.72039986 -2.30520010 0.32600001 242 247 250 50300
-2.72119999 -2.30579996 0.32710001 242 247 250 50377
-2.72079992 -2.30550003 0.32800001 242 247 250 50419
-2.72039986 -2.30520010 0.32900000 242 247 250 50359
-2.72000003 -2.30480003 0.32990000 242 247 250 50547
-2.71980000 -2.30469990 0.33090001 242 247 250 50504
-2.71980000 -2.30469990 0.33190000 242 247 251 50483
-2.72000003 -2.30480003 0.33289999 242 247 253 50300
-2.71920013 -2.30410004 0.33390000 242 247 253 50361
-2.71899986 -2.30399990 0.33579999 242 247 253 50463
-2.71880007 -2.30380011 0.33680001 242 247 253 50505
-2.71840000 -2.30349994 0.33880001 242 247 250 50506
-2.71720004 -2.30250001 0.33960000 242 247 250 50344
-2.71780014 -2.30290008 0.34070000 242 248 246 50363
-2.71759987 -2.30279994 0.34169999 242 248 244 50363
-2.71650004 -2.30180001 0.34259999 242 248 244 50155
-2.71650004 -2.30189991 0.34360000 242 248 244 50248
-2.71640015 -2.30180001 0.34459999 239 245 241 50406
-2.71720004 -2.30240011 0.34570000 239 245 241 50572
-2.71619987 -2.30159998 0.34660000 241 247 243 50365
-2.71619987 -2.30159998 0.34760001 242 248 244 50286
-2.71630001 -2.30170012 0.34959999 242 248 246 50385
-2.71619987 -2.30159998 0.35060000 241 247 247 50248
-2.71510005 -2.30069995 0.35249999 241 246 249 50250
-2.71499991 -2.30060005 0.35339999 241 246 250 50230
-2.71499991 -2.30060005 0.35440001 241 246 250 50050
-2.71490002 -2.30049992 0.35540000 242 246 255 49589
-2.71469998 -2.30040002 0.35640001 240 246 255 45428
-2.71429992 -2.29999995 0.35740000 240 246 255 36614
-2.71420002 -2.29990005 0.35839999 231 236 255 27850
-2.71390009 -2.29970002 0.35929999 211 216 236 20082
-2.71370006 -2.29949999 0.36129999 175 180 200 29228
-2.71300006 -2.29890013 0.36320001 155 160 180 45960
-2.71280003 -2.29870009 0.36520001 223 228 247 50160
-2.71149993 -2.29760003 0.36610001 223 228 247 50314
-2.71190000 -2.29800010 0.36710000 233 239 255 50217
-2.71210003 -2.29809999 0.36809999 241 245 255 50273
-2.71059990 -2.29690003 0.36890000 241 245 255 50201
-2.71099997 -2.29719996 0.37000000 241 245 255 50126
-2.71070004 -2.29690003 0.37099999 237 241 250 50145
-2.71059990 -2.29690003 0.37300000 239 244 248 50394
-2.71079993 -2.29699993 0.37400001 245 251 251 50582
-2.71059990 -2.29690003 0.37500000 245 251 251 50434
-2.71000004 -2.29629993 0.37590000 242 248 246 50435
-2.71009994 -2.29640007 0.37689999 237 243 239 50456
-2.70880008 -2.29530001 0.37770000 237 243 239 50377
-2.70930004 -2.29570007 0.37880000 239 245 241 50416
-2.70849991 -2.29500008 0.38069999 242 248 246 50480
-2.70860004 -2.29519987 0.38270000 242 248 248 50298
-2.70830011 -2.29489994 0.38370001 242 248 248 50337
-2.70860004 -2.29509997 0.38470000 242 248 248 50417
-2.70709991 -2.29390001 0.38550001 242 248 248 50281
-2.70770001 -2.29439998 0.38659999 242 248 248 50398
-2.70799994 -2.29469991 0.38769999 242 248 248 50377
-2.70709991 -2.29390001 0.38850001 242 248 248 50461
-2.70720005 -2.29399991 0.39060000 242 248 248 50261
-2.70659995 -2.29349995 0.39150000 243 249 249 50379
-2.70659995 -2.29340005 0.39250001 243 249 249 50482
-2.70589995 -2.29279995 0.39440000 243 249 249 50321
-2.70620012 -2.29309988 0.39539999 243 249 249 50320
-2.70589995 -2.29290009 0.39640000 243 249 249 50301
-2.70510006 -2.29220009 0.39730000 243 249 249 50342
-2.70490003 -2.29200006 0.39820001 243 249 249 50464
-2.70440006 -2.29159999 0.39919999 243 249 249 50571
-2.70469999 -2.29189992 0.40020001 243 249 249 50362
-2.70480013 -2.29189992 0.40130001 243 249 249 50303
-2.70389986 -2.29119992 0.40210000 243 249 249 50363
-2.70389986 -2.29119992 0.40310001 241 249 251 50528
-2.70449996 -2.29169989 0.40419999 241 249 251 50570
-2.70379996 -2.29110003 0.40610000 241 249 251 50550
-2.70370007 -2.29099989 0.40709999 241 249 251 50593
-2.70230007 -2.28990006 0.41090000 243 248 251 50552
-2.70169997 -2.28929996 0.41280001 243 248 251 50327
-2.72650003 -2.30900002 0.30700001 189 197 216 50290
-2.72569990 -2.30830002 0.30790001 189 197 216 50141
-2.72510004 -2.30780005 0.30980000 240 247 253 50236
-2.72519994 -2.30789995 0.31079999 242 247 250 50392
-2.72510004 -2.30780005 0.31180000 242 247 250 50560
-2.72429991 -2.30719995 0.31279999 242 247 250 50394
-2.72480011 -2.30760002 0.31380001 242 247 250 50142
-2.72350001 -2.30640006 0.31569999 242 247 250 50375
-2.72350001 -2.30649996 0.31670001 242 247 250 50315
-2.72379994 -2.30669999 0.31770000 242 247 250 50415
-2.72390008 -2.30679989 0.31869999 242 247 250 50334
-2.72340012 -2.30640006 0.31970000 242 247 250 50375
-2.72239995 -2.30550003 0.32060000 242 247 250 50203
-2.72309995 -2.30609989 0.32170001 242 247 250 50238
-2.72280002 -2.30579996 0.32260001 242 247 250 50316
-2.72160006 -2.30489993 0.32350001 242 247 250 50399
-2.72250009 -2.30570006 0.32460001 242 247 250 50458
-2.72169995 -2.30489993 0.32550001 242 247 250 50439
-2.72180009 -2.30500007 0.32650000 242 247 250 50460
-2.72169995 -2.30489993 0.32850000 242 247 250 50566
-2.72039986 -2.30380011 0.32940000 242 247 250 50526
-2.72090006 -2.30430007 0.33050001 242 247 250 50359
-2.72049999 -2.30390000 0.33140001 242 247 251 50359
-2.71990013 -2.30340004 0.33230001 242 247 251 50341
-2.71939993 -2.30299997 0.33329999 242 247 253 50322
-2.71959996 -2.30310011 0.33430001 242 247 253 50361
-2.71930003 -2.30290008 0.33730000 242 247 251 50527
-2.71920013 -2.30279994 0.33829999 242 247 251 50341
-2.71899986 -2.30259991 0.33930001 242 247 250 50302
-2.71810007 -2.30189991 0.34020001 242 248 246 50364
-2.71810007 -2.30189991 0.34119999 242 248 246 50507
-2.71810007 -2.30189991 0.34220001 242 248 244 50246
-2.71810007 -2.30189991 0.34320000 242 248 244 50246
-2.71780014 -2.30159998 0.34419999 242 248 244 50364
-2.71759987 -2.30150008 0.34509999 239 245 241 50404
-2.71729994 -2.30119991 0.34610000 241 247 243 50405
-2.71759987 -2.30150008 0.34709999 241 247 243 50445
-2.71700001 -2.30100012 0.34810001 242 248 244 50267
-2.71659994 -2.30069995 0.34900001 242 248 246 50326
-2.71689987 -2.30089998 0.35010001 242 248 246 50325
-2.71609998 -2.30019999 0.35200000 241 246 249 50287
-2.71580005 -2.29999995 0.35290000 241 246 249 50212
-2.71539998 -2.29960012 0.35490000 242 246 255 49196
-2.71530008 -2.29949999 0.35589999 242 246 255 42482
-2.71569991 -2.29979992 0.35699999 240 246 255 34371
-2.71510005 -2.29940009 0.35789999 231 236 255 25610
-2.71370006 -2.29820013 0.35870001 231 236 255 17917
-2.71499991 -2.29929996 0.35990000 211 216 236 13932
-2.71350002 -2.29800010 0.36070001 175 180 200 18667
-2.71370006 -2.29809999 0.36170000 175 180 200 28832
-2.71379995 -2.29830003 0.36269999 155 160 180 37510
-2.71320009 -2.29780006 0.36570001 223 228 247 50350
-2.71219993 -2.29690003 0.36759999 233 239 255 50274
-2.71210003 -2.29679990 0.36849999 241 245 255 50218
-2.71210003 -2.29679990 0.37050000 241 245 255 50198
-2.71160007 -2.29640007 0.37149999 237 241 250 50314
-2.71079993 -2.29570007 0.37340000 239 244 248 50276
-2.71099997 -2.29589987 0.37439999 245 251 251 50315
-2.71110010 -2.29589987 0.37540001 242 248 246 50394
-2.71009994 -2.29519987 0.37630001 242 248 246 50356
-2.71040010 -2.29530001 0.37729999 237 243 239 50220
-2.70989990 -2.29500008 0.37830001 239 245 241 50129
-2.71050000 -2.29550004 0.37940001 239 245 241 50334
-2.70939994 -2.29460001 0.38020000 242 248 246 50564
-2.70910001 -2.29419994 0.38119999 242 248 248 50480
-2.70950007 -2.29460001 0.38220000 242 248 248 50396
-2.70889997 -2.29410005 0.38420001 242 248 248 50357
-2.70860004 -2.29379988 0.38510001 242 248 248 50223
-2.70819998 -2.29349995 0.38609999 242 248 248 50319
-2.70849991 -2.29369998 0.38810000 242 248 248 50318
-2.70770001 -2.29309988 0.38900000 242 248 248 50359
-2.70729995 -2.29270005 0.38999999 242 248 248 50462
-2.70790005 -2.29320002 0.39109999 242 248 248 50419
-2.70720005 -2.29270005 0.39199999 243 249 249 50420
-2.70749998 -2.29290009 0.39300001 243 249 249 50502
-2.70740008 -2.29279995 0.39399999 243 249 249 50379
-2.70650005 -2.29209995 0.39690000 243 249 249 50462
-2.70599985 -2.29159999 0.39780000 243 249 249 50442
-2.70599985 -2.29169989 0.40079999 243 249 249 50401
-2.70490003 -2.29069996 0.40169999 243 249 249 50383
-2.70469999 -2.29049993 0.40360001 241 249 251 50660
-2.70449996 -2.29040003 0.40459999 241 249 251 50593
-2.70370007 -2.28970003 0.40549999 241 249 251 50446
-2.70389986 -2.28990006 0.40650001 241 249 251 50466
-2.70429993 -2.29020000 0.40759999 241 249 251 50550
-2.70400000 -2.28990006 0.40860000 241 249 251 50363
-2.70350003 -2.28950000 0.41049999 243 248 251 50594
-2.70370007 -2.28970003 0.41150001 243 248 251 50729
-2.70260000 -2.28880000 0.41240001 243 248 251 50510
-2.70260000 -2.28880000 0.41339999 243 248 251 50249
-2.70280004 -2.28900003 0.41440001 243 248 251 43692
-2.72709990 -2.30819988 0.30750000 183 191 210 50213
-2.72670007 -2.30789995 0.30840001 231 240 255 50350
-2.72639990 -2.30769992 0.30939999 240 247 253 50253
-2.72550011 -2.30690002 0.31029999 240 247 253 50434
-2.72609997 -2.30739999 0.31140000 242 247 250 50432
-2.72519994 -2.30660009 0.31230000 242 247 250 50497
-2.72560000 -2.30699992 0.31330001 242 247 250 50332
-2.72499990 -2.30640006 0.31430000 242 247 250 50275
-2.72530007 -2.30669999 0.31529999 242 247 250 50293
-2.72490001 -2.30640006 0.31630000 242 247 250 50353
-2.72440004 -2.30590010 0.31720001 242 247 250 50395
-2.72449994 -2.30609989 0.31819999 242 247 250 50497
-2.72390008 -2.30550003 0.32120001 242 247 250 50257
-2.72300005 -2.30469990 0.32210001 242 247 250 50240
-2.72329998 -2.30500007 0.32310000 242 247 250 50297
-2.72359991 -2.30530000 0.32420000 242 247 250 50296
-2.72270012 -2.30450010 0.32510000 242 247 250 50240
