//X Y Z R G B Intensity
-2.72700000 -2.27390003 0.40329999 249 252 255 50474
-2.72770000 -2.27449989 0.40439999 249 252 255 50494
-2.72729993 -2.27410007 0.40529999 248 251 255 50411
-2.72650003 -2.27340007 0.40619999 248 251 255 50313
-2.72679996 -2.27370000 0.40720001 247 250 255 48482
-2.74730015 -2.28950000 0.31740001 218 223 229 49907
-2.74740005 -2.28959990 0.31840000 218 223 229 50132
-2.74639988 -2.28870010 0.31930000 244 249 255 50134
-2.74580002 -2.28819990 0.32020000 238 242 251 50099
-2.74580002 -2.28819990 0.32120001 238 242 251 50099
-2.74659991 -2.28889990 0.32229999 238 242 251 50027
-2.74580002 -2.28819990 0.32319999 239 243 254 50029
-2.74519992 -2.28769994 0.32420000 239 243 254 46225
-2.74429989 -2.28690004 0.32510000 238 242 253 39225
-2.74510002 -2.28760004 0.32620001 244 248 255 32178
-2.74480009 -2.28740001 0.32710001 244 248 255 24010
-2.74499989 -2.28749990 0.32820001 236 239 254 15682
-2.74370003 -2.28649998 0.32900000 208 211 230 8560
-2.74280000 -2.28570008 0.32990000 208 211 230 4382
-2.74399996 -2.28670001 0.33109999 163 165 186 2975
-2.74550009 -2.28800011 0.33230001 116 118 141 2603
-2.74280000 -2.28579998 0.33289999 116 118 141 2360
-2.74230003 -2.28530002 0.33489999 90 91 119 2139
-2.74329996 -2.28609991 0.33600000 90 91 119 2146
-2.74329996 -2.28609991 0.33700001 94 95 123 2153
-2.74169993 -2.28480005 0.33880001 86 86 114 2128
-2.74259996 -2.28550005 0.33989999 83 79 106 2110
-2.74219990 -2.28520012 0.34189999 86 80 106 2039
-2.74270010 -2.28570008 0.34400001 90 84 110 2146
-2.73860002 -2.28220010 0.34549999 90 84 110 2225
-2.73950005 -2.28299999 0.34760001 89 83 109 2025
-2.73860002 -2.28220010 0.34850001 88 82 108 2000
-2.73790002 -2.28160000 0.34940001 87 81 107 1975
-2.73979998 -2.28320003 0.35170001 87 81 107 2014
-2.74000001 -2.28340006 0.35270000 87 81 107 2114
-2.73629999 -2.28029990 0.35630000 87 81 107 1967
-2.73920012 -2.28270006 0.35760000 87 81 107 2032
-2.73729992 -2.28110003 0.35839999 87 81 107 2142
-2.73720002 -2.28099990 0.35940000 87 81 107 2035
-2.73850012 -2.28209996 0.36059999 87 81 107 1957
-2.73749995 -2.28130007 0.36149999 87 81 109 1967
-2.73790002 -2.28169990 0.36250001 87 81 109 2007
-2.73689985 -2.28080010 0.36440000 85 78 111 1810
-2.73749995 -2.28130007 0.36750001 84 79 109 1925
-2.73460007 -2.27880001 0.36809999 84 79 109 1928
-2.73720002 -2.28099990 0.37050000 84 80 107 2000
-2.73650002 -2.28040004 0.37239999 83 81 105 1967
-2.73580003 -2.27990007 0.37329999 83 81 105 1942
-2.73269987 -2.27729988 0.37490001 82 80 104 2060
-2.73290014 -2.27749991 0.37590000 84 82 106 2096
-2.73300004 -2.27749991 0.37689999 84 82 106 2192
-2.73280001 -2.27729988 0.37990001 83 83 109 2382
-2.73269987 -2.27729988 0.38090000 87 87 115 2357
-2.73189998 -2.27659988 0.38180000 84 83 114 2507
-2.73290014 -2.27740002 0.38299999 84 83 114 3117
-2.73140001 -2.27620006 0.38380000 84 83 114 5292
-2.73230004 -2.27699995 0.38490000 91 92 120 10439
-2.73169994 -2.27640009 0.38580000 91 92 120 17800
-2.73259997 -2.27719998 0.38690001 96 101 123 27396
-2.73180008 -2.27649999 0.38780001 137 144 162 38046
-2.73079991 -2.27570009 0.38870001 137 144 162 46792
-2.73129988 -2.27609992 0.38980001 191 197 213 50211
-2.73090005 -2.27579999 0.39070001 233 239 253 50428
-2.73029995 -2.27530003 0.39160001 233 239 253 50328
-2.73049998 -2.27539992 0.39269999 248 254 255 50408
-2.73029995 -2.27530003 0.39370000 241 248 255 50491
-2.73009992 -2.27509999 0.39460000 241 248 255 50512
-2.73020005 -2.27519989 0.39570001 240 244 253 50491
-2.72889996 -2.27410007 0.39649999 249 254 255 50411
-2.72880006 -2.27399993 0.39750001 249 254 255 50536
-2.72900009 -2.27419996 0.39850000 245 250 254 50668
-2.72889996 -2.27410007 0.39950001 246 251 255 50646
-2.72860003 -2.27390003 0.40040001 246 251 255 50692
-2.72849989 -2.27379990 0.40140000 248 251 255 50858
-2.72839999 -2.27370000 0.40239999 249 252 255 50647
-2.72860003 -2.27390003 0.40349999 249 252 255 50579
-2.72830009 -2.27360010 0.40439999 249 252 255 50558
-2.72849989 -2.27379990 0.40549999 248 251 255 50410
-2.72889996 -2.27410007 0.40650001 248 251 255 50069
-2.75010014 -2.29060006 0.31750000 188 193 197 45292
-2.74839997 -2.28920007 0.31830001 188 193 197 50113
-2.74760008 -2.28850007 0.31930000 231 235 244 50264
-2.74709988 -2.28810000 0.32020000 243 247 255 50189
-2.74620008 -2.28730011 0.32110000 243 247 255 49946
-2.74679995 -2.28780007 0.32220000 244 248 255 49339
-2.74620008 -2.28730011 0.32310000 247 250 255 46742
-2.74629998 -2.28740001 0.32420000 247 250 255 39821
-2.74559999 -2.28679991 0.32510000 244 247 255 32182
-2.74629998 -2.28740001 0.32620001 235 237 255 24228
-2.74639988 -2.28749990 0.32720000 235 237 255 16142
-2.74580002 -2.28699994 0.32810000 204 206 229 8167
-2.74410009 -2.28550005 0.32890001 153 155 180 4210
-2.74340010 -2.28500009 0.32980001 153 155 180 2985
-2.74259996 -2.28430009 0.33070001 110 112 137 2557
-2.74359989 -2.28509998 0.33190000 96 98 123 2360
-2.74449992 -2.28590012 0.33300000 96 98 123 2260
-2.74309993 -2.28469992 0.33379999 89 91 116 2103
-2.74469995 -2.28609991 0.33600000 84 86 111 2071
-2.74370003 -2.28520012 0.33690000 84 86 109 2096
-2.74370003 -2.28520012 0.33790001 86 86 110 2078
-2.74499989 -2.28629994 0.34009999 83 79 104 2110
-2.74280000 -2.28450012 0.34079999 86 80 106 2007
-2.74040008 -2.28250003 0.34160000 86 80 106 2125
-2.74090004 -2.28290009 0.34259999 89 83 109 2107
-2.74079990 -2.28279996 0.34360000 90 84 110 2075
-2.74160004 -2.28349996 0.34470001 90 84 110 2178
-2.74289989 -2.28460002 0.34590000 89 83 109 2235
-2.74169993 -2.28349996 0.34670001 88 82 108 2178
-2.74040008 -2.28250003 0.34760001 88 82 108 2039
-2.74250007 -2.28419995 0.34990001 89 83 109 1889
-2.74049997 -2.28250003 0.35060000 89 83 109 1875
-2.74259996 -2.28430009 0.35190001 87 81 107 1971
-2.73950005 -2.28169990 0.35249999 87 81 107 2032
-2.73920012 -2.28139997 0.35350001 87 81 107 2089
-2.74090004 -2.28290009 0.35470000 87 81 107 2032
-2.74169993 -2.28349996 0.35580000 87 81 107 2007
-2.73720002 -2.27990007 0.35720000 87 81 107 2060
-2.73990011 -2.28209996 0.35859999 87 81 107 2000
-2.73930001 -2.28160000 0.35949999 87 81 107 2000
-2.73749995 -2.27999997 0.36030000 87 81 107 2000
-2.73990011 -2.28209996 0.36160001 87 81 109 2025
-2.73720002 -2.27979994 0.36230001 87 81 109 2000
-2.73780012 -2.28029990 0.36330000 86 79 110 1817
-2.73880005 -2.28119993 0.36449999 86 79 110 1824
-2.73629999 -2.27909994 0.36520001 86 79 110 1764
-2.73869991 -2.28110003 0.36649999 85 80 110 1967
-2.73559999 -2.27839994 0.36809999 85 81 108 1985
-2.73420000 -2.27729988 0.36890000 85 81 108 2028
-2.73810005 -2.28049994 0.37040001 85 81 108 2057
-2.73519993 -2.27810001 0.37210000 84 82 106 1971
-2.73609996 -2.27889991 0.37320000 84 82 106 1878
-2.73290014 -2.27620006 0.37380001 84 82 106 1996
-2.73519993 -2.27819991 0.37610000 85 83 107 2200
-2.73539996 -2.27830005 0.37709999 85 83 107 2264
-2.73580003 -2.27869987 0.37819999 81 81 107 2207
-2.73409986 -2.27729988 0.37900001 80 80 106 2357
-2.73150015 -2.27509999 0.37959999 80 80 106 2278
-2.73150015 -2.27509999 0.38360000 82 82 110 3242
-2.73119998 -2.27480006 0.38460001 86 87 115 5682
-2.73169994 -2.27530003 0.38560000 86 87 115 10810
-2.73160005 -2.27509999 0.38659999 89 93 118 18571
-2.73189998 -2.27539992 0.38769999 102 107 129 28675
-2.73129988 -2.27489996 0.38859999 102 107 129 38182
-2.73140001 -2.27500010 0.38960001 139 144 164 47328
-2.73169994 -2.27519989 0.39070001 196 201 220 50230
-2.73129988 -2.27489996 0.39160001 196 201 220 50387
-2.73049998 -2.27430010 0.39250001 241 247 255 50492
-2.73079991 -2.27440000 0.39359999 248 254 255 50450
-2.73040009 -2.27419996 0.39449999 248 254 255 50409
-2.73009992 -2.27390003 0.39550000 242 246 255 50451
-2.72930002 -2.27320004 0.39640000 244 248 255 50351
-2.73029995 -2.27399993 0.39750001 244 248 255 50389
-2.72919989 -2.27309990 0.39840001 245 250 255 50515
-2.72930002 -2.27329993 0.39940000 246 251 255 50624
-2.72939992 -2.27329993 0.40040001 246 251 255 50557
-2.72919989 -2.27320004 0.40140000 248 251 255 50715
-2.72919989 -2.27320004 0.40239999 249 252 255 50691
-2.72909999 -2.27309990 0.40340000 249 252 255 50536
-2.72849989 -2.27259994 0.40430000 249 252 255 50494
-2.72950006 -2.27340007 0.40540001 247 250 255 50368
-2.72970009 -2.27360010 0.40650001 247 250 255 47335
-2.74970007 -2.28889990 0.31850001 154 157 162 46857
-2.74830008 -2.28769994 0.31930000 202 205 214 50151
-2.74769998 -2.28719997 0.32030001 236 238 251 50098
-2.74740005 -2.28699994 0.32120001 236 238 251 46210
-2.74800014 -2.28749990 0.32229999 243 244 255 43432
-2.74800014 -2.28749990 0.32330000 247 248 255 37057
-2.74639988 -2.28609991 0.32420000 247 248 255 29853
-2.74740005 -2.28690004 0.32530001 232 232 255 21835
-2.74709988 -2.28670001 0.32630000 196 195 226 14721
-2.74709988 -2.28670001 0.32730001 196 195 226 7328
-2.74489999 -2.28489995 0.32800001 149 148 179 3750
-2.74690008 -2.28660011 0.32929999 110 109 140 2807
-2.74659991 -2.28629994 0.33019999 110 109 140 2396
-2.74499989 -2.28489995 0.33199999 88 88 116 2242
-2.74390006 -2.28399992 0.33289999 88 88 116 2146
-2.74440002 -2.28439999 0.33399999 89 89 115 2053
-2.74270010 -2.28299999 0.33579999 84 84 108 2082
-2.74259996 -2.28299999 0.33780000 84 82 104 2064
-2.74440002 -2.28439999 0.33899999 84 82 104 2103
-2.74239993 -2.28279996 0.33980000 83 79 104 2046
-2.74270010 -2.28299999 0.34079999 86 80 106 2096
-2.74550009 -2.28530002 0.34220001 86 80 106 2142
-2.74189997 -2.28240013 0.34270000 89 83 109 2071
-2.74359989 -2.28369999 0.34400001 88 82 108 2096
-2.74329996 -2.28360009 0.34490001 88 82 108 2089
-2.74390006 -2.28399992 0.34599999 87 81 107 2053
-2.74230003 -2.28270006 0.35080001 89 83 109 2032
-2.74070001 -2.28139997 0.35270000 87 81 107 2000
-2.73900008 -2.27990007 0.35339999 87 81 107 2035
-2.74009991 -2.28090000 0.35460001 87 81 107 2107
-2.74200010 -2.28240013 0.35780001 87 81 107 2053
-2.73839998 -2.27950001 0.35839999 87 81 107 2057
-2.73810005 -2.27920008 0.36039999 87 81 107 1985
-2.73839998 -2.27950001 0.36140001 87 81 107 2000
-2.73609996 -2.27749991 0.36510000 86 80 108 1896
-2.73609996 -2.27749991 0.36610001 86 80 108 1953
-2.73810005 -2.27920008 0.36840001 86 80 108 2042
-2.73600006 -2.27740002 0.36910000 86 80 108 1935
-2.73580003 -2.27719998 0.37009999 86 80 106 1928
-2.73659992 -2.27789998 0.37120000 86 80 106 1903
-2.73679996 -2.27810001 0.37230000 85 81 106 1885
-2.73479986 -2.27649999 0.37300000 85 81 106 1839
-2.73589993 -2.27740002 0.37410000 85 81 106 1921
-2.73629999 -2.27769995 0.37520000 82 80 104 1953
-2.73749995 -2.27869987 0.37639999 87 85 109 2025
-2.73469996 -2.27640009 0.37700000 87 85 109 2135
-2.73370004 -2.27559996 0.37790000 85 83 107 2253
-2.73360014 -2.27550006 0.37990001 81 78 105 2192
-2.73479986 -2.27640009 0.38100001 82 82 108 2267
-2.73309994 -2.27500010 0.38180000 83 83 109 2303
-2.73519993 -2.27670002 0.38310000 83 83 109 2307
-2.73390007 -2.27570009 0.38389999 82 82 108 2639
-2.73230004 -2.27440000 0.38470000 84 84 112 3342
-2.73350000 -2.27539992 0.38589999 84 84 112 5932
-2.73320007 -2.27509999 0.38690001 90 91 121 11357
-2.73329997 -2.27519989 0.38789999 90 91 121 19964
-2.73329997 -2.27519989 0.38890001 90 91 121 32139
-2.73309994 -2.27509999 0.38990000 104 105 133 43500
-2.73239994 -2.27449989 0.39080000 147 149 174 50066
-2.73230004 -2.27440000 0.39179999 147 149 174 50287
-2.73140001 -2.27360010 0.39260000 203 205 228 50388
-2.73150015 -2.27370000 0.39359999 236 239 255 50470
-2.73189998 -2.27399993 0.39469999 236 239 255 50448
-2.73169994 -2.27390003 0.39570001 243 246 255 50347
-2.73150015 -2.27370000 0.39669999 244 248 255 50470
-2.73119998 -2.27349997 0.39760000 244 248 255 50534
-2.73059988 -2.27300000 0.39850000 246 248 255 50557
-2.73099995 -2.27329993 0.39960000 247 250 255 50644
-2.73009992 -2.27259994 0.40050000 247 250 255 50646
-2.73020005 -2.27259994 0.40149999 248 251 255 50691
-2.72979999 -2.27230000 0.40239999 249 252 255 50431
-2.73009992 -2.27250004 0.40349999 249 252 255 50389
-2.73049998 -2.27290010 0.40459999 248 251 255 50328
-2.73110008 -2.27329993 0.40570000 245 249 252 49782
-2.74959993 -2.28749990 0.31930000 202 205 214 45328
-2.74959993 -2.28749990 0.32030001 236 238 251 48532
-2.74959993 -2.28749990 0.32139999 236 238 251 43882
-2.74839997 -2.28649998 0.32220000 243 244 255 37632
-2.74830008 -2.28640008 0.32319999 247 248 255 30721
-2.74810004 -2.28629994 0.32420000 247 248 255 21950
-2.74779987 -2.28609991 0.32519999 232 232 255 13942
-2.74659991 -2.28500009 0.32600001 196 195 226 6985
-2.74600005 -2.28450012 0.32900000 110 109 140 2464
-2.74699998 -2.28539991 0.33010000 110 109 140 2232
-2.74530005 -2.28390002 0.33090001 86 85 116 2285
-2.74810004 -2.28629994 0.33230001 88 88 116 2275
-2.74600005 -2.28450012 0.33300000 88 88 116 2160
-2.74760008 -2.28579998 0.33419999 89 89 115 2085
-2.74580002 -2.28439999 0.33500001 84 84 108 2153
-2.74419999 -2.28299999 0.33680001 81 82 103 2064
-2.74659991 -2.28500009 0.33809999 84 82 104 1985
-2.74379992 -2.28270006 0.33980000 83 79 104 2014
-2.74519992 -2.28380013 0.34099999 86 80 106 2135
-2.74230003 -2.28150010 0.34160000 86 80 106 2139
-2.74390006 -2.28279996 0.34279999 89 83 109 2046
-2.74329996 -2.28220010 0.34380001 88 82 108 2071
-2.74239993 -2.28150010 0.34470001 88 82 108 2039
-2.74460006 -2.28340006 0.34599999 87 81 107 2003
-2.74169993 -2.28090000 0.34660000 86 80 106 2050
-2.74230003 -2.28150010 0.34770000 86 80 106 2089
-2.74070001 -2.28009987 0.34850001 87 81 107 2082
-2.74270010 -2.28180003 0.34970000 89 83 109 2153
-2.74289989 -2.28189993 0.35080001 89 83 109 2171
-2.74149990 -2.28080010 0.35260001 87 81 107 2164
-2.74259996 -2.28169990 0.35370001 87 81 107 2078
-2.74090004 -2.28029990 0.35450000 87 81 107 2032
-2.73909998 -2.27880001 0.35730001 87 81 107 1992
-2.74049997 -2.27999997 0.35850000 87 81 107 2057
-2.74070001 -2.28009987 0.36050001 87 81 107 2089
-2.73869991 -2.27839994 0.36230001 87 81 107 2125
-2.73810005 -2.27789998 0.36320001 86 80 108 2017
-2.74009991 -2.27959991 0.36449999 86 80 108 1892
-2.74060011 -2.27999997 0.36559999 86 80 108 1917
-2.73970008 -2.27929997 0.36649999 86 80 108 2050
-2.73699999 -2.27699995 0.36710000 86 80 108 2003
-2.73909998 -2.27880001 0.36840001 86 80 108 2032
-2.73900008 -2.27869987 0.36939999 86 80 108 1975
-2.73689985 -2.27699995 0.37110001 86 80 106 1853
-2.73640013 -2.27659988 0.37210000 85 81 106 2010
-2.73640013 -2.27649999 0.37310001 85 81 106 1978
-2.73850012 -2.27830005 0.37439999 85 81 106 1942
-2.73539996 -2.27570009 0.37490001 82 80 104 1971
-2.73600006 -2.27620006 0.37700000 87 85 109 2150
-2.73399997 -2.27449989 0.37779999 85 83 107 2110
-2.73609996 -2.27629995 0.37909999 81 78 105 2110
-2.73469996 -2.27509999 0.37990001 81 78 105 2260
-2.73309994 -2.27379990 0.38170001 83 83 109 2410
-2.73379993 -2.27440000 0.38280001 83 83 109 2325
-2.73500013 -2.27539992 0.38389999 82 82 108 2267
-2.73449993 -2.27500010 0.38490000 84 84 112 2557
-2.73259997 -2.27340007 0.38560000 84 84 112 3507
-2.73339987 -2.27399993 0.38670000 90 91 121 6792
-2.73280001 -2.27360010 0.38760000 90 91 121 12353
-2.73309994 -2.27379990 0.38870001 90 91 121 21903
-2.73409986 -2.27460003 0.38980001 104 105 133 32728
-2.73350000 -2.27410007 0.39080000 147 149 174 42900
-2.73220015 -2.27300000 0.39160001 147 149 174 50016
-2.73230004 -2.27309990 0.39260000 203 205 228 50251
-2.73189998 -2.27279997 0.39350000 236 239 255 50270
-2.73199987 -2.27290010 0.39460000 236 239 255 50289
-2.73189998 -2.27279997 0.39559999 243 246 255 50213
-2.73169994 -2.27259994 0.39649999 244 248 255 50348
-2.73239994 -2.27320004 0.39770001 244 248 255 50387
-2.73160005 -2.27250004 0.39850000 246 248 255 50577
-2.73119998 -2.27220011 0.39950001 247 250 255 50645
-2.73129988 -2.27230000 0.40050000 247 250 255 50622
-2.73099995 -2.27209997 0.40149999 248 251 255 50429
-2.73079991 -2.27189994 0.40239999 249 252 255 50290
-2.73059988 -2.27169991 0.40340000 249 252 255 50196
-2.73099995 -2.27209997 0.40450001 248 251 255 50051
-2.74970007 -2.28629994 0.32040000 213 215 228 39928
-2.74870014 -2.28539991 0.32130000 213 215 228 35996
-2.74830008 -2.28509998 0.32220000 225 226 246 28275
-2.74819994 -2.28509998 0.32319999 229 229 253 19810
-2.74849987 -2.28530002 0.32429999 229 229 253 12010
-2.74909997 -2.28579998 0.32539999 201 200 231 6035
-2.74940014 -2.28600001 0.32640001 142 141 173 3478
-2.74699998 -2.28410006 0.32710001 142 141 173 2735
-2.74769998 -2.28469992 0.33019999 94 93 127 2225
-2.74699998 -2.28399992 0.33109999 86 85 117 2153
-2.74639988 -2.28360009 0.33210000 79 79 107 2267
-2.74629998 -2.28349996 0.33309999 79 79 107 2071
-2.74760008 -2.28460002 0.33419999 80 80 104 2125
-2.74519992 -2.28259993 0.33600000 89 90 111 2028
-2.74620008 -2.28340006 0.33710000 91 92 110 1971
-2.74679995 -2.28390002 0.33820000 82 81 99 2010
-2.74659991 -2.28369999 0.33910000 82 81 99 1989
-2.74309993 -2.28080010 0.34169999 86 80 106 2039
-2.74340010 -2.28099990 0.34380001 87 81 107 2046
-2.74340010 -2.28110003 0.34480000 87 81 107 2014
-2.74359989 -2.28119993 0.34580001 84 78 104 2032
-2.74410009 -2.28169990 0.34689999 84 78 104 2160
-2.74550009 -2.28279996 0.34810001 84 78 104 2225
-2.74309993 -2.28080010 0.34880000 85 79 105 2153
-2.74379992 -2.28139997 0.34990001 88 82 108 2278
-2.74320006 -2.28090000 0.35080001 88 82 108 2310
-2.74340010 -2.28099990 0.35179999 87 81 107 2228
-2.74449992 -2.28200006 0.35299999 87 81 107 2146
-2.74099994 -2.27909994 0.35360000 87 81 107 2067
-2.73979998 -2.27799988 0.35540000 87 81 107 1942
-2.73970008 -2.27799988 0.35640001 87 81 107 2042
-2.74320006 -2.28090000 0.35789999 87 81 107 2064
-2.74340010 -2.28099990 0.35890001 87 81 107 2039
-2.74110007 -2.27909994 0.35960001 87 81 107 1982
-2.74230003 -2.28009987 0.36080000 87 81 107 2089
-2.74230003 -2.28009987 0.36179999 87 81 107 2153
-2.74189997 -2.27979994 0.36370000 85 79 105 1964
-2.73749995 -2.27609992 0.36420000 85 79 107 1903
-2.73990011 -2.27819991 0.36550000 85 79 107 1950
-2.74079990 -2.27889991 0.36759999 85 79 107 2050
-2.73609996 -2.27500010 0.37000000 85 79 105 1796
-2.73970008 -2.27799988 0.37250000 84 80 105 1935
-2.73769999 -2.27629995 0.37320000 84 80 105 1992
-2.73740005 -2.27609992 0.37419999 84 80 105 1935
-2.73640013 -2.27519989 0.37509999 80 78 102 2010
-2.73679996 -2.27559996 0.37610000 88 86 110 2053
-2.73720002 -2.27589989 0.37720001 88 86 110 2092
-2.73900008 -2.27740002 0.37840000 87 85 109 2042
-2.73549986 -2.27449989 0.37900001 83 81 105 2092
-2.73539996 -2.27440000 0.38100001 84 84 110 2275
-2.73679996 -2.27559996 0.38220000 86 86 112 2300
-2.73600006 -2.27489996 0.38310000 86 86 112 2275
-2.73710012 -2.27579999 0.38420001 84 84 110 2364
-2.73580003 -2.27469993 0.38600001 86 86 114 2646
-2.73230004 -2.27180004 0.38659999 86 85 116 3807
-2.73390007 -2.27309990 0.38780001 89 90 121 7224
-2.73350000 -2.27279997 0.38870001 89 90 121 13278
-2.73379993 -2.27309990 0.38980001 90 91 121 22785
-2.73329997 -2.27259994 0.39070001 110 111 139 33635
-2.73379993 -2.27309990 0.39179999 110 111 139 43657
-2.73329997 -2.27259994 0.39269999 160 162 187 50015
-2.73210001 -2.27169991 0.39359999 212 214 237 50122
-2.73280001 -2.27220011 0.39469999 212 214 237 50250
-2.73320007 -2.27250004 0.39570001 240 243 255 50407
-2.73320007 -2.27250004 0.39669999 249 252 255 50490
-2.73210001 -2.27160001 0.39760000 249 252 255 50471
-2.73239994 -2.27189994 0.39860001 246 248 255 50644
-2.73259997 -2.27209997 0.39969999 247 249 255 50598
-2.73160005 -2.27119994 0.40050000 247 249 255 50513
-2.73230004 -2.27180004 0.40160000 249 252 255 50367
-2.73189998 -2.27150011 0.40259999 249 252 255 50388
-2.73140001 -2.27110004 0.40349999 249 252 255 50158
-2.75129986 -2.28629994 0.32139999 170 169 183 26832
-2.74950004 -2.28480005 0.32220000 194 192 213 18260
-2.75059986 -2.28570008 0.32339999 181 179 203 10303
-2.75000000 -2.28520012 0.32429999 181 179 203 5100
-2.75090003 -2.28590012 0.32539999 137 134 165 3125
-2.74699998 -2.28270006 0.32699999 104 100 133 2475
-2.74880004 -2.28419995 0.32820001 93 89 124 2275
-2.74730015 -2.28290009 0.32900000 91 87 122 2307
-2.74930000 -2.28460002 0.33030000 91 87 122 2257
-2.74810004 -2.28360009 0.33210000 87 84 113 2085
-2.74860001 -2.28399992 0.33320001 87 84 113 1996
-2.74609995 -2.28189993 0.33390000 86 84 108 1957
-2.74940014 -2.28469992 0.33530000 86 84 105 2035
-2.74639988 -2.28220010 0.33690000 86 85 101 2003
-2.74580002 -2.28169990 0.33790001 87 84 103 1971
-2.74690008 -2.28259993 0.34000000 85 80 103 2078
-2.74830008 -2.28380013 0.34119999 85 79 105 2067
-2.74370003 -2.27999997 0.34169999 85 79 105 2057
-2.74709988 -2.28279996 0.34310001 85 79 105 1978
-2.74709988 -2.28279996 0.34410000 85 79 105 2078
-2.74429989 -2.28049994 0.34480000 85 79 105 1975
-2.74559999 -2.28160000 0.34590000 85 79 105 2039
-2.74259996 -2.27909994 0.34660000 85 79 105 2007
-2.74329996 -2.27959991 0.34760001 85 79 105 2071
-2.74429989 -2.28049994 0.34880000 85 79 105 2146
-2.74410009 -2.28029990 0.34979999 85 79 105 2096
-2.74489999 -2.28099990 0.35089999 85 79 105 2228
-2.74399996 -2.28020000 0.35179999 87 81 107 2128
-2.74189997 -2.27850008 0.35249999 87 81 107 2075
-2.74300003 -2.27939987 0.35360000 87 81 107 2007
-2.74370003 -2.27990007 0.35470000 87 81 107 1914
-2.74180007 -2.27839994 0.35550001 86 80 106 1950
-2.74160004 -2.27819991 0.35650000 86 80 106 1950
-2.74280000 -2.27920008 0.35760000 86 80 106 1932
-2.74239993 -2.27880001 0.35859999 85 79 105 1867
-2.74239993 -2.27889991 0.35960001 85 79 105 2114
-2.74130011 -2.27799988 0.36149999 85 79 105 2125
-2.74009991 -2.27690005 0.36230001 85 79 105 2017
-2.74130011 -2.27799988 0.36350000 87 78 105 1935
-2.74070001 -2.27749991 0.36440000 87 78 105 1900
-2.74099994 -2.27780008 0.36550000 87 78 105 1885
-2.74200010 -2.27850008 0.36660001 87 78 105 1907
-2.74049997 -2.27729988 0.36939999 85 79 105 2042
-2.73810005 -2.27530003 0.37009999 85 79 105 1860
-2.73869991 -2.27579999 0.37220001 85 79 107 1928
-2.73950005 -2.27649999 0.37329999 85 79 107 2017
-2.73900008 -2.27609992 0.37430000 85 79 107 2050
-2.73839998 -2.27559996 0.37520000 84 80 107 2085
-2.73780012 -2.27509999 0.37610000 84 80 107 2092
-2.73570013 -2.27329993 0.37680000 84 80 107 2053
-2.73769999 -2.27500010 0.37810001 83 81 105 2010
-2.73810005 -2.27530003 0.37920001 84 82 106 2110
-2.73749995 -2.27489996 0.38010001 84 82 106 2117
-2.73699999 -2.27440000 0.38100001 84 82 106 2175
-2.73519993 -2.27290010 0.38180000 85 83 107 2235
-2.73420000 -2.27200007 0.38260001 85 83 107 2303
-2.73640013 -2.27390003 0.38389999 85 83 107 2242
-2.73370004 -2.27169991 0.38460001 85 82 109 2246
-2.73740005 -2.27469993 0.38609999 85 82 109 2325
-2.73490000 -2.27270007 0.38780001 91 87 120 3846
-2.73539996 -2.27300000 0.38880000 91 87 120 7567
-2.73309994 -2.27119994 0.38949999 89 85 118 13739
-2.73449993 -2.27230000 0.39070001 88 87 118 23346
-2.73399997 -2.27189994 0.39170000 88 87 118 34285
-2.73300004 -2.27110004 0.39250001 113 113 141 43232
-2.73360014 -2.27160001 0.39359999 160 160 186 50050
-2.73360014 -2.27160001 0.39460000 160 160 186 50327
-2.73320007 -2.27119994 0.39559999 212 212 236 50388
-2.73379993 -2.27180004 0.39669999 251 252 255 50598
-2.73350000 -2.27150011 0.39760000 251 252 255 50620
-2.73309994 -2.27119994 0.39860001 243 245 255 50470
-2.73250008 -2.27069998 0.39950001 249 251 255 50535
-2.73239994 -2.27060008 0.40050000 249 251 255 50645
-2.73269987 -2.27080011 0.40149999 248 251 255 50428
-2.73309994 -2.27110004 0.40259999 243 246 253 50308
-2.73320007 -2.27119994 0.40360001 243 246 253 48235
-2.75300002 -2.28649998 0.32370001 181 179 203 4757
-2.75139999 -2.28509998 0.32550001 137 134 165 2467
-2.75020003 -2.28410006 0.32630000 104 100 133 2371
-2.75080013 -2.28460002 0.32740000 104 100 133 2246
-2.75180006 -2.28550005 0.32859999 93 89 124 2189
-2.74849987 -2.28270006 0.33019999 91 87 122 2078
-2.74989986 -2.28390002 0.33129999 89 85 118 1992
-2.74830008 -2.28250003 0.33320001 87 84 113 2035
-2.75000000 -2.28390002 0.33440000 86 84 108 1967
-2.74609995 -2.28069997 0.33690000 86 85 101 1989
-2.74659991 -2.28110003 0.33800000 87 84 103 1889
-2.74699998 -2.28139997 0.34009999 85 80 103 2096
-2.74569988 -2.28040004 0.34189999 85 79 105 2021
-2.74670005 -2.28119993 0.34299999 85 79 105 2046
-2.74620008 -2.28069997 0.34400001 85 79 105 1982
-2.74550009 -2.28020000 0.34490001 85 79 105 2121
-2.74480009 -2.27959991 0.34580001 85 79 105 2021
-2.74519992 -2.27990007 0.34790000 85 79 105 2021
-2.74539995 -2.28009987 0.34889999 85 79 105 1996
-2.74370003 -2.27869987 0.35069999 85 79 105 2132
-2.74589992 -2.28049994 0.35200000 87 81 107 2046
-2.74200010 -2.27729988 0.35249999 87 81 107 1917
-2.74200010 -2.27729988 0.35350001 87 81 107 1900
-2.74300003 -2.27810001 0.35560000 86 80 106 2014
-2.74289989 -2.27799988 0.35659999 86 80 106 2032
-2.74429989 -2.27920008 0.35780001 86 80 106 1971
-2.74370003 -2.27869987 0.35980001 85 79 105 2164
-2.74250007 -2.27769995 0.36059999 85 79 105 2164
-2.74130011 -2.27670002 0.36149999 85 79 105 2139
-2.74230003 -2.27749991 0.36260000 85 79 105 2025
-2.73939991 -2.27509999 0.36320001 87 78 105 1967
-2.74009991 -2.27570009 0.36430001 87 78 105 1917
-2.74070001 -2.27620006 0.36739999 87 78 105 1960
-2.74099994 -2.27649999 0.36849999 87 78 105 1950
-2.73970008 -2.27539992 0.36930001 85 79 105 1910
-2.74119997 -2.27659988 0.37050000 85 79 105 1942
-2.73900008 -2.27480006 0.37120000 85 79 105 1885
-2.74029994 -2.27589989 0.37239999 85 79 107 2032
-2.74020004 -2.27579999 0.37340000 85 79 107 2100
-2.73880005 -2.27460003 0.37419999 85 79 107 2110
-2.74070001 -2.27620006 0.37549999 84 80 107 2082
-2.73959994 -2.27530003 0.37630001 84 80 107 2050
-2.74029994 -2.27589989 0.37740001 84 80 107 2075
-2.73839998 -2.27430010 0.37819999 83 81 105 2075
-2.73889995 -2.27469993 0.37930000 84 82 106 2075
-2.73659992 -2.27279997 0.37990001 84 82 106 2117
-2.73689985 -2.27309990 0.38100001 84 82 106 2117
-2.73609996 -2.27239990 0.38190001 85 83 107 2178
-2.73780012 -2.27379990 0.38409999 85 83 107 2192
-2.73640013 -2.27259994 0.38589999 85 82 109 2225
-2.73689985 -2.27300000 0.38699999 84 80 113 2332
-2.73640013 -2.27259994 0.38800001 91 87 120 2828
-2.73530006 -2.27169991 0.38880000 91 87 120 4282
-2.73500013 -2.27150011 0.38980001 89 85 118 7950
-2.73619986 -2.27239990 0.39100000 88 87 118 14239
-2.73510003 -2.27150011 0.39179999 88 87 118 24303
-2.73449993 -2.27099991 0.39269999 113 113 141 35764
-2.73490000 -2.27139997 0.39379999 160 160 186 45082
-2.73510003 -2.27150011 0.39480001 160 160 186 50192
-2.73469996 -2.27119994 0.39579999 212 212 236 50489
-2.73449993 -2.27110004 0.39680001 251 252 255 50598
-2.73409986 -2.27069998 0.39770001 251 252 255 50533
-2.73350000 -2.27020001 0.39860001 243 245 255 50450
-2.73399997 -2.27060008 0.39969999 249 251 255 50490
-2.73370004 -2.27040005 0.40059999 249 251 255 50621
-2.73460007 -2.27110004 0.40180001 248 251 255 50447
-2.75250006 -2.28480005 0.32550001 107 104 131 2321
-2.74849987 -2.28139997 0.32699999 87 84 115 2128
-2.75269985 -2.28489995 0.32850000 86 82 115 2157
-2.75020003 -2.28279996 0.32920000 87 83 116 2110
-2.75080013 -2.28329992 0.33030000 87 83 116 2035
-2.74989986 -2.28259993 0.33120000 88 85 116 2078
-2.74779987 -2.28090000 0.33300000 87 84 111 2071
-2.74909997 -2.28189993 0.33410001 84 82 104 2035
-2.75020003 -2.28279996 0.33520001 84 81 100 1960
-2.75049996 -2.28310013 0.33829999 86 83 100 1921
-2.74830008 -2.28130007 0.33910000 86 83 100 2035
-2.74779987 -2.28080010 0.34000000 85 80 103 1971
-2.74679995 -2.27999997 0.34090000 85 79 105 2007
-2.74690008 -2.28009987 0.34189999 85 79 105 1946
-2.74690008 -2.28009987 0.34290001 85 79 105 1982
-2.74460006 -2.27819991 0.34360000 85 79 105 1950
-2.74790001 -2.28099990 0.34509999 85 79 105 2021
-2.74639988 -2.27970004 0.34590000 85 79 105 2053
-2.74650002 -2.27979994 0.34689999 85 79 105 1932
-2.74769998 -2.28080010 0.34900001 85 79 105 2010
-2.74569988 -2.27909994 0.34979999 85 79 105 2053
-2.74679995 -2.27999997 0.35100001 85 79 105 2053
-2.74329996 -2.27710009 0.35350001 87 81 107 1925
-2.74449992 -2.27810001 0.35470000 87 81 107 2064
-2.74309993 -2.27690005 0.35550001 86 80 106 2189
-2.74379992 -2.27749991 0.35760000 86 80 106 2089
-2.74259996 -2.27649999 0.35850000 85 79 105 2067
-2.74469995 -2.27830005 0.36080000 85 79 105 2039
-2.74429989 -2.27789998 0.36170000 85 79 105 2046
-2.74349999 -2.27729988 0.36260000 85 79 105 2050
-2.74349999 -2.27729988 0.36359999 87 79 103 2064
-2.74130011 -2.27539992 0.36430001 87 79 103 1975
-2.74259996 -2.27649999 0.36550000 87 79 103 1957
-2.74219990 -2.27620006 0.36649999 87 79 103 1935
-2.74329996 -2.27710009 0.36759999 87 78 105 2007
-2.74140000 -2.27559996 0.36840001 87 78 105 1860
-2.73920012 -2.27370000 0.37009999 85 79 105 2010
-2.74079990 -2.27500010 0.37130001 85 79 105 2057
-2.74079990 -2.27500010 0.37230000 85 79 107 2100
-2.74099994 -2.27519989 0.37340000 85 79 107 2075
-2.74020004 -2.27449989 0.37430000 85 79 107 2000
-2.74040008 -2.27469993 0.37529999 84 80 107 1935
-2.73880005 -2.27340007 0.37610000 84 80 107 2078
-2.74060011 -2.27480006 0.37729999 84 80 107 2075
-2.73729992 -2.27209997 0.38090000 84 82 106 2092
-2.73749995 -2.27230000 0.38190001 85 83 107 2160
-2.73600006 -2.27110004 0.38370001 85 83 107 2053
-2.73950005 -2.27399993 0.38519999 85 82 109 2132
-2.73640013 -2.27139997 0.38580000 85 82 109 2160
-2.73769999 -2.27239990 0.38699999 87 84 115 2200
-2.73650002 -2.27150011 0.38780001 86 82 115 2310
-2.73479986 -2.27010012 0.38859999 86 82 115 2607
-2.73570013 -2.27080011 0.38970000 83 79 112 4078
-2.73609996 -2.27110004 0.39080000 87 84 115 8078
-2.73570013 -2.27069998 0.39170000 87 84 115 14950
-2.73559999 -2.27069998 0.39269999 99 99 127 25185
-2.73589993 -2.27090001 0.39379999 124 124 150 38042
-2.73580003 -2.27090001 0.39469999 124 124 150 47125
-2.73539996 -2.27049994 0.39570001 170 170 194 50248
-2.73530006 -2.27049994 0.39669999 217 218 239 50426
-2.73519993 -2.27040005 0.39770001 217 218 239 50597
-2.73490000 -2.27010012 0.39870000 243 244 255 50490
-2.73500013 -2.27020001 0.39969999 246 248 255 50532
-2.73479986 -2.27010012 0.40070000 246 248 255 50469
-2.73519993 -2.27040005 0.40169999 244 246 255 50173
-2.75150013 -2.28259993 0.32839999 85 78 109 2050
-2.75300002 -2.28390002 0.32960001 88 81 112 2025
-2.75080013 -2.28200006 0.33030000 88 81 112 1978
-2.75000000 -2.28130007 0.33120000 90 84 112 2028
-2.74950004 -2.28090000 0.33210000 89 83 109 1996
-2.75209999 -2.28310013 0.33450001 86 81 104 2010
-2.74919987 -2.28069997 0.33710000 86 82 99 2003
-2.74989986 -2.28119993 0.33919999 88 83 103 2067
-2.74819994 -2.27979994 0.34000000 85 80 103 2053
-2.74810004 -2.27979994 0.34099999 85 79 105 2110
-2.74659991 -2.27850008 0.34189999 85 79 105 2007
-2.74909997 -2.28049994 0.34320000 85 79 105 1985
-2.74830008 -2.27990007 0.34410000 85 79 105 1964
-2.74699998 -2.27880001 0.34590000 85 79 105 2014
-2.74709988 -2.27900004 0.34700000 85 79 105 1921
-2.74839997 -2.27999997 0.34810001 85 79 105 1971
-2.74650002 -2.27850008 0.34889999 85 79 105 2078
-2.74679995 -2.27869987 0.34990001 85 79 105 2078
-2.74390006 -2.27629995 0.35060000 85 79 105 2057
-2.74390006 -2.27620006 0.35159999 87 81 107 1925
-2.74580002 -2.27780008 0.35280001 87 81 107 1857
-2.74600005 -2.27799988 0.35389999 87 81 107 1950
-2.74419999 -2.27659988 0.35470000 86 80 106 2100
-2.74559999 -2.27769995 0.35679999 86 80 106 2139
-2.74580002 -2.27789998 0.35789999 86 80 106 2053
-2.74629998 -2.27830005 0.35990000 86 80 106 1989
-2.74289989 -2.27539992 0.36149999 85 79 105 2125
-2.74480009 -2.27699995 0.36280000 85 79 105 2171
-2.74370003 -2.27609992 0.36359999 87 79 103 2157
-2.74110007 -2.27399993 0.36430001 87 79 103 2010
-2.74309993 -2.27559996 0.36559999 87 79 103 1925
-2.74419999 -2.27659988 0.36669999 87 79 103 2007
-2.74270010 -2.27530003 0.36849999 87 79 103 1935
-2.74280000 -2.27539992 0.36960000 87 78 105 1967
-2.74000001 -2.27300000 0.37220001 85 79 107 2010
-2.74219990 -2.27489996 0.37349999 85 79 107 2025
-2.74060011 -2.27349997 0.37430000 85 79 107 2017
-2.74219990 -2.27489996 0.37549999 85 79 107 2025
-2.74009991 -2.27309990 0.37720001 85 79 107 2050
-2.73839998 -2.27169991 0.37799999 84 80 105 2067
-2.74130011 -2.27419996 0.37940001 85 81 106 2007
-2.73869991 -2.27189994 0.38110000 85 81 104 2150
-2.73959994 -2.27270007 0.38220000 86 82 105 2060
-2.73760009 -2.27110004 0.38490000 85 83 107 2160
-2.73740005 -2.27090001 0.38589999 85 83 107 2250
-2.73880005 -2.27200007 0.38710001 88 83 113 2225
-2.73749995 -2.27099991 0.38789999 82 77 109 2178
-2.73909998 -2.27230000 0.39019999 81 76 108 2835
-2.73740005 -2.27090001 0.39190000 87 82 114 9289
-2.73769999 -2.27110004 0.39300001 89 86 115 16507
-2.73710012 -2.27060008 0.39390001 92 89 118 28071
-2.73619986 -2.26990008 0.39480001 92 89 118 39882
-2.73650002 -2.27010012 0.39579999 126 123 150 48217
-2.73559999 -2.26940012 0.39669999 174 172 194 50193
-2.73609996 -2.26979995 0.39780000 174 172 194 50488
-2.73600006 -2.26970005 0.39879999 227 228 248 50553
-2.73609996 -2.26979995 0.39980000 241 242 255 50425
-2.73609996 -2.26979995 0.40079999 241 242 255 49560
-2.75269985 -2.28230000 0.32830000 85 78 109 2025
-2.74940014 -2.27959991 0.33100000 90 84 112 1832
-2.75259995 -2.28220010 0.33239999 89 83 109 2010
-2.74959993 -2.27970004 0.33300000 89 83 109 2110
-2.75239992 -2.28209996 0.33440000 86 81 104 2132
-2.75099993 -2.28090000 0.33620000 84 79 99 2053
-2.75099993 -2.28090000 0.33719999 86 82 99 2010
-2.74979997 -2.27990007 0.33910000 88 83 103 2028
-2.75110006 -2.28099990 0.34029999 85 80 103 2010
-2.75070000 -2.28060007 0.34119999 85 79 105 2078
-2.75070000 -2.28060007 0.34220001 85 79 105 2053
-2.74760008 -2.27810001 0.34279999 85 79 105 2007
-2.74880004 -2.27909994 0.34400001 85 79 105 1907
-2.74580002 -2.27659988 0.34459999 85 79 105 2082
-2.74810004 -2.27850008 0.34590000 85 79 105 2053
-2.74550009 -2.27640009 0.34760001 85 79 105 2007
-2.74559999 -2.27640009 0.34860000 85 79 105 2082
-2.74810004 -2.27850008 0.35100001 85 79 105 1971
-2.74760008 -2.27810001 0.35190001 87 81 107 1907
-2.74629998 -2.27699995 0.35370001 87 81 107 1925
-2.74440002 -2.27539992 0.35450000 86 80 106 1950
-2.74390006 -2.27509999 0.35650000 86 80 106 1975
-2.74580002 -2.27659988 0.35769999 86 80 106 2082
-2.74699998 -2.27760005 0.35990000 86 80 106 2046
-2.74519992 -2.27609992 0.36059999 85 79 105 2082
-2.74469995 -2.27570009 0.36260000 85 79 105 2139
-2.74370003 -2.27489996 0.36449999 87 79 103 1942
-2.74440002 -2.27539992 0.36860001 87 79 103 1907
-2.74349999 -2.27469993 0.37050000 87 78 105 2157
-2.74280000 -2.27410007 0.37239999 85 79 107 2100
-2.74210000 -2.27349997 0.37329999 85 79 107 1967
-2.74130011 -2.27290010 0.37419999 85 79 107 1967
-2.74140000 -2.27300000 0.37729999 85 79 107 2092
-2.74210000 -2.27360010 0.37840000 84 80 105 2075
-2.74259996 -2.27390003 0.37940001 85 81 106 1992
-2.74040008 -2.27209997 0.38010001 85 81 106 2067
-2.73880005 -2.27080011 0.38090000 85 81 104 2092
-2.73990011 -2.27169991 0.38209999 86 82 105 2003
-2.73839998 -2.27040005 0.38290000 86 82 105 1964
-2.73790002 -2.26999998 0.38380000 85 83 105 2110
-2.74000001 -2.27180004 0.38510001 85 83 107 2092
-2.73830009 -2.27040005 0.38589999 85 83 107 2225
-2.73760009 -2.26979995 0.38880000 82 77 109 2275
-2.73839998 -2.27040005 0.39089999 87 82 114 2928
-2.73839998 -2.27049994 0.39190000 87 82 114 4692
-2.73729992 -2.26950002 0.39280000 89 86 115 9300
-2.73710012 -2.26940012 0.39379999 92 89 118 16407
-2.73769999 -2.26979995 0.39480001 92 89 118 27575
-2.73720002 -2.26950002 0.39579999 126 123 150 39871
-2.73689985 -2.26920009 0.39669999 174 172 194 48410
-2.73659992 -2.26900005 0.39770001 174 172 194 50211
-2.73619986 -2.26859999 0.39870000 227 228 248 50230
-2.73619986 -2.26859999 0.39969999 241 242 255 50014
-2.75360012 -2.28169990 0.33050001 92 87 110 2010
-2.75169992 -2.28009987 0.33329999 87 82 105 2035
-2.75199986 -2.28049994 0.33430001 87 82 104 2085
-2.75259995 -2.28090000 0.33539999 88 83 105 2060
-2.75119996 -2.27979994 0.33820000 89 84 106 2060
-2.75139999 -2.27990007 0.33930001 89 84 106 1978
-2.74919987 -2.27810001 0.34000000 85 80 103 1932
-2.75139999 -2.27990007 0.34130001 85 79 105 2110
-2.74970007 -2.27850008 0.34209999 85 79 105 2078
-2.74779987 -2.27690005 0.34290001 85 79 105 2021
-2.74769998 -2.27690005 0.34490001 85 79 105 2114
-2.74870014 -2.27769995 0.34599999 85 79 105 2128
-2.74839997 -2.27740002 0.34700000 85 79 105 2089
-2.74860001 -2.27760005 0.34799999 85 79 105 2160
-2.74679995 -2.27609992 0.34880000 85 79 105 2007
-2.74819994 -2.27719998 0.34999999 85 79 105 1982
-2.74790001 -2.27699995 0.35089999 85 79 105 2014
-2.74670005 -2.27600002 0.35179999 86 80 106 1964
-2.74849987 -2.27749991 0.35400000 86 80 106 1932
-2.74790001 -2.27699995 0.35499999 86 80 106 2003
-2.74569988 -2.27519989 0.35569999 86 80 106 1989
-2.74440002 -2.27410007 0.35650000 86 80 106 1960
-2.74670005 -2.27600002 0.35780001 86 80 106 1982
-2.74530005 -2.27480006 0.35859999 86 80 106 2064
-2.74670005 -2.27600002 0.36080000 86 80 106 2071
-2.74539995 -2.27500010 0.36170000 86 81 104 1917
-2.74370003 -2.27349997 0.36250001 86 81 104 2032
-2.74550009 -2.27500010 0.36370000 86 78 101 2014
-2.74510002 -2.27469993 0.36469999 86 78 101 1950
-2.74530005 -2.27489996 0.36570001 86 78 101 1982
-2.74390006 -2.27370000 0.36649999 86 78 101 1892
-2.74390006 -2.27370000 0.36750001 86 78 102 1967
-2.74429989 -2.27410007 0.36860001 86 78 102 2000
-2.74449992 -2.27419996 0.37059999 86 77 104 2182
-2.74189997 -2.27200007 0.37130001 86 77 104 2092
-2.74289989 -2.27290010 0.37239999 84 78 106 1992
-2.74149990 -2.27169991 0.37320000 84 78 106 2003
-2.74210000 -2.27220011 0.37430000 84 78 106 2117
-2.74149990 -2.27169991 0.37520000 85 79 107 2050
-2.74390006 -2.27370000 0.37660000 85 79 107 2107
-2.74349999 -2.27340007 0.37750000 85 79 107 2089
-2.73990011 -2.27040005 0.37799999 84 80 105 1953
-2.74270010 -2.27270007 0.37940001 85 81 106 2057
-2.74320006 -2.27309990 0.38049999 85 81 106 2100
-2.74110007 -2.27139997 0.38119999 85 81 104 2125
-2.73990011 -2.27040005 0.38209999 86 83 104 2042
-2.73830009 -2.26900005 0.38490000 85 83 105 2121
-2.73740005 -2.26830006 0.38569999 85 83 105 2114
-2.73749995 -2.26839995 0.38679999 84 80 107 2121
-2.74060011 -2.27099991 0.38920000 83 78 108 2175
-2.73979998 -2.27029991 0.39010000 84 79 109 2382
-2.73920012 -2.26979995 0.39199999 88 83 113 3125
-2.73889995 -2.26959991 0.39300001 87 84 113 5392
-2.73819995 -2.26889992 0.39390001 84 81 108 10175
-2.73799992 -2.26880002 0.39489999 84 81 108 18107
-2.73839998 -2.26920009 0.39590001 102 100 124 30328
-2.73790002 -2.26870012 0.39690000 133 131 153 40510
-2.73790002 -2.26870012 0.39789999 133 131 153 48778
-2.73830009 -2.26909995 0.39899999 184 185 205 47646
-2.75390005 -2.28069997 0.33239999 86 78 99 2107
-2.75449991 -2.28119993 0.33350000 86 78 99 2057
-2.75099993 -2.27830005 0.33500001 91 83 106 1921
-2.75370002 -2.28049994 0.33739999 90 82 105 2082
-2.75020003 -2.27760005 0.33899999 87 79 103 2028
-2.75139999 -2.27850008 0.34110001 85 79 105 2010
-2.75230002 -2.27929997 0.34430000 85 79 105 1992
-2.75000000 -2.27740002 0.34500000 85 79 105 2028
-2.75010014 -2.27749991 0.34599999 85 79 105 2035
-2.74880004 -2.27649999 0.34689999 85 79 105 2146
-2.74800014 -2.27579999 0.34779999 85 79 105 2021
-2.74989986 -2.27740002 0.34900001 85 79 105 1871
-2.75020003 -2.27760005 0.35010001 85 79 105 1896
-2.74690008 -2.27480006 0.35060000 85 79 105 1917
-2.74749994 -2.27539992 0.35170001 86 80 106 1914
-2.74819994 -2.27600002 0.35280001 86 80 106 1889
-2.74709988 -2.27500010 0.35470000 86 80 106 1892
-2.74699998 -2.27489996 0.35569999 86 80 106 1882
-2.74779987 -2.27559996 0.35780001 86 80 106 2039
-2.74580002 -2.27390003 0.35850000 86 80 106 2032
-2.74819994 -2.27589989 0.35990000 86 80 106 2014
-2.74639988 -2.27440000 0.36059999 86 80 106 1950
-2.74730015 -2.27519989 0.36179999 86 81 104 1889
-2.74699998 -2.27489996 0.36469999 87 77 101 1875
-2.74580002 -2.27390003 0.36559999 87 77 101 1989
-2.74679995 -2.27469993 0.36669999 87 77 101 1982
-2.74530005 -2.27349997 0.36750001 87 77 102 1982
-2.74419999 -2.27259994 0.36840001 87 77 102 2075
-2.74320006 -2.27180004 0.36930001 86 77 104 2142
-2.74480009 -2.27309990 0.37050000 86 77 104 2057
-2.74600005 -2.27410007 0.37169999 86 77 104 1939
-2.74449992 -2.27279997 0.37250000 86 77 106 1957
-2.74539995 -2.27360010 0.37360001 86 77 108 2032
-2.74230003 -2.27099991 0.37419999 86 77 108 2110
-2.74079990 -2.26979995 0.37500000 85 78 109 2067
-2.74270010 -2.27139997 0.37630001 85 79 107 2010
-2.74200010 -2.27080011 0.37920001 85 81 106 2092
-2.73970008 -2.26889992 0.38090000 85 81 104 2028
-2.74110007 -2.27010012 0.38209999 86 83 104 2067
-2.74079990 -2.26979995 0.38400000 86 83 104 2085
-2.74119997 -2.27020001 0.38510001 86 83 104 2075
-2.74029994 -2.26940012 0.38600001 86 83 104 2085
-2.74230003 -2.27110004 0.38730001 82 76 102 2082
-2.73769999 -2.26719999 0.38760000 90 84 112 2114
-2.74210000 -2.27090001 0.38929999 90 84 112 2164
-2.74009991 -2.26929998 0.39100000 89 83 111 2300
-2.74099994 -2.26999998 0.39309999 90 86 113 3032
-2.73990011 -2.26900005 0.39399999 91 87 114 5178
-2.73990011 -2.26900005 0.39500001 91 87 114 10035
-2.73909998 -2.26839995 0.39590001 94 90 115 18471
-2.73959994 -2.26880002 0.39690000 101 97 122 29596
-2.73959994 -2.26880002 0.39800000 101 97 122 37667
-2.75430012 -2.27970004 0.33649999 91 83 106 2082
-2.75399995 -2.27939987 0.33739999 90 82 105 2035
-2.75430012 -2.27970004 0.33950001 87 79 103 2025
-2.75300002 -2.27859998 0.34130001 85 79 105 1978
-2.75139999 -2.27729988 0.34209999 85 79 105 1914
-2.75049996 -2.27659988 0.34299999 85 79 105 1921
-2.75010014 -2.27629995 0.34400001 85 79 105 1921
-2.75080013 -2.27679992 0.34610000 85 79 105 1971
-2.74830008 -2.27480006 0.34680000 85 79 105 1917
-2.74819994 -2.27460003 0.34779999 85 79 105 1964
-2.75139999 -2.27729988 0.34920001 85 79 105 1921
-2.74940014 -2.27559996 0.34990001 85 79 105 1939
-2.74730015 -2.27390003 0.35170001 86 80 106 2032
-2.75000000 -2.27620006 0.35299999 86 80 106 1939
-2.74849987 -2.27489996 0.35389999 86 80 106 1971
-2.74959993 -2.27579999 0.35699999 86 80 106 2014
-2.74819994 -2.27460003 0.35780001 86 80 106 1939
-2.74790001 -2.27440000 0.35879999 86 80 106 1939
-2.74919987 -2.27550006 0.36000001 86 80 106 1989
-2.74769998 -2.27430010 0.36080000 86 80 106 2021
-2.74749994 -2.27410007 0.36179999 86 81 104 1882
-2.74810004 -2.27460003 0.36289999 86 81 104 1817
-2.74659991 -2.27340007 0.36370000 86 78 101 1867
-2.74609995 -2.27290010 0.36460000 87 77 101 2064
-2.74609995 -2.27290010 0.36559999 87 77 101 2000
-2.74569988 -2.27259994 0.36759999 87 77 102 1925
-2.74379992 -2.27099991 0.36930001 86 77 104 1942
-2.74519992 -2.27220011 0.37160000 86 77 104 1835
-2.74480009 -2.27189994 0.37349999 86 77 108 2150
-2.74620008 -2.27300000 0.37470001 86 77 108 2089
-2.74219990 -2.26970005 0.37720001 85 79 107 2010
-2.74419999 -2.27139997 0.37850001 84 80 105 2050
-2.74099994 -2.26870012 0.37900001 85 81 106 2085
-2.74370003 -2.27090001 0.38040000 85 81 106 2042
-2.74399996 -2.27119994 0.38139999 85 81 104 2057
-2.74180007 -2.26940012 0.38209999 86 83 104 2092
-2.74060011 -2.26839995 0.38299999 86 83 104 2117
-2.74140000 -2.26900005 0.38409999 86 83 104 2085
-2.74110007 -2.26880002 0.38510001 86 83 104 2067
-2.74250007 -2.26990008 0.38630000 86 83 104 2075
-2.74119997 -2.26889992 0.38710001 82 76 102 2150
-2.74250007 -2.26990008 0.38830000 90 84 112 2092
-2.73900008 -2.26699996 0.38880000 90 84 112 2110
-2.73959994 -2.26760006 0.38990000 91 85 113 2167
-2.74230003 -2.26979995 0.39129999 89 83 111 2189
-2.73889995 -2.26699996 0.39179999 89 83 111 2285
-2.74040008 -2.26819992 0.39300001 90 86 113 2425
-2.75399995 -2.27819991 0.33320001 92 85 103 2042
-2.75320005 -2.27749991 0.33510000 90 82 105 2150
-2.75160003 -2.27620006 0.33700001 87 79 103 2053
-2.75239992 -2.27679992 0.33910000 83 74 101 1964
-2.75290012 -2.27729988 0.34020001 85 79 105 1971
-2.75209999 -2.27670002 0.34110001 85 79 105 1989
-2.75150013 -2.27609992 0.34200001 85 79 105 1889
-2.75379992 -2.27810001 0.34330001 85 79 105 1928
-2.75290012 -2.27729988 0.34520000 85 79 105 2067
-2.75080013 -2.27559996 0.34590000 85 79 105 1971
-2.75269985 -2.27710009 0.34720001 85 79 105 1971
-2.75029993 -2.27519989 0.34889999 85 79 105 1939
-2.75059986 -2.27539992 0.34990001 85 79 105 2014
-2.74989986 -2.27480006 0.35089999 85 79 105 2039
-2.74940014 -2.27440000 0.35179999 85 79 105 1964
-2.75129986 -2.27600002 0.35310000 85 79 105 1978
-2.74919987 -2.27430010 0.35380000 85 79 105 1964
-2.75020003 -2.27509999 0.35490000 86 80 106 2028
-2.74790001 -2.27309990 0.35560000 86 80 106 1932
-2.74760008 -2.27290010 0.35859999 86 80 106 1982
-2.74620008 -2.27169991 0.36039999 87 81 107 2017
-2.74900007 -2.27410007 0.36280000 87 82 105 1824
-2.74870014 -2.27379990 0.36480001 86 77 98 1957
-2.74600005 -2.27160001 0.36550000 86 77 98 1950
-2.74849987 -2.27360010 0.36680001 86 76 100 1889
-2.74659991 -2.27209997 0.36759999 86 76 100 1892
-2.74580002 -2.27139997 0.36849999 86 76 100 1892
-2.74730015 -2.27270007 0.36970001 85 77 101 1857
-2.74790001 -2.27320004 0.37079999 85 76 103 1782
-2.74559999 -2.27130008 0.37349999 85 76 107 2089
-2.74370003 -2.26970005 0.37419999 85 76 107 2017
-2.74429989 -2.27020001 0.37529999 85 78 109 1992
-2.74180007 -2.26810002 0.37700000 85 79 107 2085
-2.74419999 -2.27010012 0.37830001 84 80 105 2057
-2.74219990 -2.26850009 0.37900001 85 81 104 1985
-2.74469995 -2.27049994 0.38040000 85 81 104 1960
-2.74530005 -2.27099991 0.38249999 86 83 104 2057
-2.74329996 -2.26929998 0.38420001 86 83 102 2017
-2.74040008 -2.26699996 0.38580000 86 83 102 2110
-2.74280000 -2.26889992 0.38720000 83 78 101 2167
-2.75209999 -2.27530003 0.34000000 85 79 105 1939
-2.75530005 -2.27799988 0.34150001 85 79 105 2042
-2.75469995 -2.27749991 0.34240001 85 79 105 2003
-2.75029993 -2.27379990 0.34290001 85 79 105 1907
-2.75199986 -2.27519989 0.34410000 85 79 105 2078
-2.75329995 -2.27629995 0.34520000 85 79 105 2078
-2.75029993 -2.27390003 0.34689999 85 79 105 1889
-2.75290012 -2.27589989 0.34920001 85 79 105 1878
-2.75230002 -2.27539992 0.35020000 85 79 105 1871
-2.75139999 -2.27469993 0.35110000 85 79 105 1953
-2.75040007 -2.27390003 0.35190001 85 79 105 1925
-2.74950004 -2.27320004 0.35280001 85 79 105 1957
-2.74930000 -2.27300000 0.35380000 85 79 105 1989
-2.74830008 -2.27220011 0.35470000 85 79 105 1975
-2.75049996 -2.27399993 0.35600001 86 80 106 2021
-2.75029993 -2.27379990 0.35690001 86 80 106 1971
-2.74810004 -2.27200007 0.35769999 86 80 106 1975
-2.75010014 -2.27370000 0.35890001 87 81 107 1957
-2.74870014 -2.27250004 0.35980001 87 81 107 1982
-2.74870014 -2.27250004 0.36080000 87 81 107 2000
-2.74790001 -2.27180004 0.36269999 89 81 105 1900
-2.75020003 -2.27370000 0.36399999 86 77 98 1939
-2.74940014 -2.27309990 0.36489999 86 77 98 1964
-2.74629998 -2.27049994 0.36550000 86 77 98 1967
-2.74629998 -2.27060008 0.36649999 86 76 100 1867
-2.74819994 -2.27209997 0.36980000 85 76 103 1882
-2.74460006 -2.26920009 0.37130001 85 76 105 1846
-2.74690008 -2.27099991 0.37360001 85 76 107 1967
-2.74550009 -2.26979995 0.37439999 85 76 107 2075
-2.74489999 -2.26929998 0.37639999 85 78 109 2117
-2.74670005 -2.27080011 0.37760001 85 78 109 2025
-2.74460006 -2.26909995 0.37830001 85 79 107 1950
-2.74559999 -2.26990008 0.37950000 86 80 106 1925
-2.74609995 -2.27029991 0.38060001 86 80 106 1950
-2.74340010 -2.26810002 0.38119999 85 81 104 2085
-2.74460006 -2.26909995 0.38240001 86 83 104 2082
-2.74410009 -2.26870012 0.38330001 86 83 104 2035
-2.74370003 -2.26830006 0.38420001 86 83 102 2092
-2.74280000 -2.26760006 0.38710001 88 83 103 2067
-2.74410009 -2.26870012 0.39039999 90 82 105 2339
-2.75430012 -2.27579999 0.33710000 89 80 107 1960
-2.75440001 -2.27589989 0.33820000 87 78 107 1782
-2.75489998 -2.27640009 0.33919999 87 78 107 1828
-2.75500011 -2.27640009 0.34029999 85 79 105 1903
-2.75600004 -2.27729988 0.34140000 85 79 105 1960
-2.75419998 -2.27579999 0.34220001 85 79 105 2017
-2.75399995 -2.27559996 0.34320000 85 79 105 2035
