//X Y Z R G B Intensity
-2.73090005 -2.29879999 0.32659999 243 247 250 50412
-2.73020005 -2.29820013 0.32749999 243 247 250 50456
-2.72970009 -2.29780006 0.32839999 243 247 250 50520
-2.73009992 -2.29820013 0.32949999 243 247 250 50435
-2.72939992 -2.29760003 0.33039999 243 247 250 50276
-2.72950006 -2.29769993 0.33140001 243 247 250 50315
-2.72849989 -2.29679990 0.33430001 243 247 250 50278
-2.72900009 -2.29719996 0.33539999 243 247 250 50335
-2.72830009 -2.29660010 0.33629999 243 247 250 50356
-2.72810006 -2.29649997 0.33730000 240 244 247 50240
-2.72700000 -2.29550004 0.33820000 240 244 247 50131
-2.72700000 -2.29559994 0.33919999 241 245 248 50131
-2.72679996 -2.29539990 0.34119999 243 247 250 50420
-2.72740006 -2.29589987 0.34230000 244 247 252 50279
-2.72630000 -2.29489994 0.34310001 244 247 252 50009
-2.72620010 -2.29489994 0.34410000 244 247 252 43453
-2.72620010 -2.29489994 0.34509999 241 244 251 37539
-2.72620010 -2.29489994 0.34610000 235 238 247 28964
-2.72580004 -2.29449987 0.34709999 235 238 247 20046
-2.72490001 -2.29369998 0.34799999 230 232 244 11960
-2.72429991 -2.29320002 0.35690001 84 80 107 2060
-2.72300005 -2.29209995 0.36080000 88 78 103 2203
-2.72180009 -2.29119992 0.36160001 88 78 103 2253
-2.72160006 -2.29099989 0.36870000 88 81 115 7332
-2.72039986 -2.28999996 0.36950001 88 82 116 13828
-2.72039986 -2.28990006 0.37050000 88 82 116 23717
-2.72099996 -2.29040003 0.37160000 101 97 130 35460
-2.72000003 -2.28970003 0.37250000 153 153 181 44475
-2.72020006 -2.28979993 0.37349999 153 153 181 50122
-2.72029996 -2.28990006 0.37450001 200 202 225 50388
-2.71980000 -2.28950000 0.37540001 240 243 255 50601
-2.71910000 -2.28889990 0.37639999 240 243 255 50602
-2.71920013 -2.28889990 0.37740001 241 247 255 50558
-2.71840000 -2.28830004 0.37830001 232 242 244 50495
-2.71869993 -2.28850007 0.38229999 244 254 246 50602
-2.71810007 -2.28800011 0.38420001 242 248 246 50740
-2.71740007 -2.28740001 0.38510001 242 248 246 50788
-2.71790004 -2.28789997 0.38620001 243 247 248 50811
-2.71729994 -2.28740001 0.38710001 243 247 248 50627
-2.71710014 -2.28719997 0.38810000 243 247 248 50393
-2.71689987 -2.28699994 0.38909999 243 247 248 50256
-2.71710014 -2.28719997 0.39010000 243 247 248 50393
-2.71650004 -2.28670001 0.39109999 243 247 248 50414
-2.71640015 -2.28660011 0.39309999 243 247 248 50518
-2.71549988 -2.28579998 0.39390001 243 247 248 50356
-2.71479988 -2.28530002 0.39480001 243 247 248 50298
-2.71460009 -2.28509998 0.39680001 242 246 247 50377
-2.71460009 -2.28509998 0.39780000 242 246 247 50377
-2.71449995 -2.28500009 0.39879999 242 246 247 50377
-2.71440005 -2.28489995 0.39980000 242 246 247 50357
-2.71409988 -2.28469992 0.40079999 242 246 247 50318
-2.71370006 -2.28430009 0.40270001 242 246 247 50399
-2.71239996 -2.28329992 0.40450001 242 246 247 50341
-2.71309996 -2.28380013 0.40560001 241 247 247 50379
-2.71239996 -2.28320003 0.40750000 246 255 252 50263
-2.71239996 -2.28320003 0.40849999 241 250 247 50546
-2.71239996 -2.28320003 0.40959999 241 250 247 50634
-2.71190000 -2.28279996 0.41249999 241 249 251 50282
-2.71190000 -2.28279996 0.41350001 242 247 251 46228
-2.73500013 -2.30100012 0.30939999 206 206 218 50367
-2.73449993 -2.30060005 0.31029999 206 206 218 50368
-2.73430014 -2.30040002 0.31130001 243 245 255 50212
-2.73409986 -2.30019999 0.31230000 238 241 250 50157
-2.73360014 -2.29990005 0.31320000 238 241 250 50213
-2.73430014 -2.30040002 0.31430000 247 250 255 50347
-2.73290014 -2.29920006 0.31520000 245 249 252 50330
-2.73239994 -2.29890013 0.31709999 244 248 251 50453
-2.73309994 -2.29940009 0.31819999 243 247 250 50625
-2.73309994 -2.29940009 0.31920001 243 247 250 50602
-2.73280001 -2.29909992 0.32020000 243 247 250 50431
-2.73290014 -2.29920006 0.32120001 243 247 250 50452
-2.73220015 -2.29859996 0.32210001 243 247 250 50453
-2.73210001 -2.29859996 0.32310000 242 246 249 50371
-2.73140001 -2.29789996 0.32409999 241 245 248 50413
-2.73189998 -2.29839993 0.32510000 241 245 248 50433
-2.73169994 -2.29820013 0.32609999 247 251 254 50412
-2.73160005 -2.29809999 0.32710001 243 247 250 50352
-2.73049998 -2.29730010 0.32800001 243 247 250 50435
-2.73040009 -2.29710007 0.32900000 241 245 248 50415
-2.73049998 -2.29730010 0.33000001 242 246 249 50295
-2.73029995 -2.29699993 0.33300000 240 244 247 50414
-2.72959995 -2.29649997 0.33390000 240 244 247 50257
-2.72860003 -2.29559994 0.33480000 238 242 245 50166
-2.72909999 -2.29609990 0.33690000 237 241 244 50277
-2.72880006 -2.29579997 0.33780000 240 245 248 50202
-2.72830009 -2.29539990 0.33880001 238 243 247 50241
-2.72860003 -2.29559994 0.33980000 238 243 247 50317
-2.72749996 -2.29469991 0.34169999 243 248 254 50077
-2.72720003 -2.29439998 0.34270000 243 248 254 46539
-2.72639990 -2.29379988 0.34360000 251 254 255 40228
-2.72749996 -2.29469991 0.34470001 243 245 255 32953
-2.72720003 -2.29439998 0.34570000 243 245 255 24167
-2.72670007 -2.29399991 0.34660000 213 212 226 15435
-2.72490001 -2.29250002 0.35139999 114 111 132 2482
-2.72410011 -2.29189992 0.35440001 87 83 108 2267
-2.72510004 -2.29259992 0.35650000 86 80 108 2117
-2.72329998 -2.29119992 0.35929999 86 80 108 2185
-2.72309995 -2.29099989 0.36019999 86 80 108 2253
-2.72280002 -2.29069996 0.36320001 91 81 105 2146
-2.72300005 -2.29089999 0.36530000 87 76 106 2300
-2.72020006 -2.28850007 0.37290001 104 100 133 40971
-2.72049999 -2.28880000 0.37400001 151 151 179 48839
-2.71959996 -2.28810000 0.37480000 151 151 179 50312
-2.72000003 -2.28839993 0.37590000 208 210 233 50515
-2.71950006 -2.28789997 0.37680000 235 241 255 50474
-2.72009993 -2.28850007 0.37790000 235 241 255 50514
-2.71880007 -2.28740001 0.37880000 239 248 255 50372
-2.71939993 -2.28789997 0.37979999 236 246 247 50350
-2.71860003 -2.28719997 0.38069999 236 246 247 50538
-2.71910000 -2.28769994 0.38180000 236 248 244 50625
-2.71869993 -2.28730011 0.38280001 239 250 244 50581
-2.71860003 -2.28719997 0.38380000 242 248 246 50740
-2.71869993 -2.28730011 0.38479999 242 248 246 50763
-2.71810007 -2.28679991 0.38569999 243 247 248 50671
-2.71810007 -2.28679991 0.38670000 243 247 248 50717
-2.71799994 -2.28670001 0.38769999 243 247 248 50496
-2.71659994 -2.28559995 0.38949999 242 246 247 50396
-2.71659994 -2.28550005 0.39050001 242 246 247 50563
-2.71640015 -2.28539991 0.39150000 241 245 246 50520
-2.71689987 -2.28570008 0.39250001 244 248 249 50415
-2.71619987 -2.28520012 0.39350000 244 248 249 50220
-2.71539998 -2.28450012 0.39430001 248 252 253 50298
-2.71619987 -2.28520012 0.39550000 243 247 248 50457
-2.71549988 -2.28450012 0.39640000 243 247 248 50417
-2.71569991 -2.28469992 0.39739999 243 247 248 50336
-2.71519995 -2.28430009 0.39829999 243 247 248 50480
-2.71510005 -2.28430009 0.39930001 243 247 248 50438
-2.71530008 -2.28450012 0.40040001 243 247 248 50521
-2.71449995 -2.28369999 0.40120000 243 247 248 50398
-2.71490002 -2.28410006 0.40230000 243 247 248 50337
-2.71399999 -2.28329992 0.40419999 243 247 248 50460
-2.71359992 -2.28299999 0.40509999 243 247 248 50461
-2.71390009 -2.28320003 0.40619999 243 247 248 50502
-2.71350002 -2.28290009 0.40709999 243 249 249 50359
-2.71289992 -2.28240013 0.40900001 238 247 246 50483
-2.71289992 -2.28240013 0.41000000 243 251 253 50568
-2.71199989 -2.28169990 0.41190001 243 251 253 50322
-2.71259999 -2.28220010 0.41299999 240 245 249 48760
-2.73640013 -2.30080009 0.30890000 130 127 138 48014
-2.73600006 -2.30049992 0.30989999 191 189 202 50173
-2.73559999 -2.30019999 0.31090000 236 235 249 50307
-2.73510003 -2.29970002 0.31180000 236 235 249 50327
-2.73469996 -2.29940009 0.31279999 241 243 255 50194
-2.73530006 -2.29990005 0.31389999 243 246 251 50288
-2.73440003 -2.29920006 0.31680000 242 246 249 50389
-2.73399997 -2.29879999 0.31770000 242 246 249 50493
-2.73309994 -2.29800010 0.31860000 242 246 249 50453
-2.73370004 -2.29859996 0.31970000 242 246 249 50493
-2.73339987 -2.29830003 0.32069999 242 246 249 50370
-2.73239994 -2.29740000 0.32159999 243 247 250 50313
-2.73280001 -2.29780006 0.32260001 242 246 249 50432
-2.73280001 -2.29780006 0.32359999 242 246 249 50474
-2.73239994 -2.29740000 0.32460001 242 246 249 50454
-2.73150015 -2.29670000 0.32650000 243 247 250 50374
-2.73119998 -2.29640007 0.32749999 242 246 249 50334
-2.73189998 -2.29710007 0.32859999 243 247 250 50293
-2.73059988 -2.29589987 0.33039999 246 250 253 50335
-2.73099995 -2.29629993 0.33250001 246 250 253 50394
-2.73009992 -2.29550004 0.33340001 245 249 252 50356
-2.73009992 -2.29559994 0.33440000 243 247 250 50296
-2.72919989 -2.29469991 0.33530000 243 247 250 50299
-2.73000002 -2.29539990 0.33640000 243 247 250 50277
-2.72989988 -2.29539990 0.33739999 241 246 250 50219
-2.72959995 -2.29509997 0.33939999 240 245 251 50201
-2.72830009 -2.29399991 0.34020001 240 245 251 50223
-2.72839999 -2.29410005 0.34119999 240 245 251 49892
-2.72729993 -2.29320002 0.34610000 174 173 189 9721
-2.72700000 -2.29290009 0.35010001 104 101 122 2503
-2.72569990 -2.29180002 0.35089999 97 93 116 2367
-2.72490001 -2.29119992 0.35789999 86 80 108 2160
-2.72519994 -2.29139996 0.35890001 86 80 108 2210
-2.72410011 -2.29049993 0.36280000 88 80 103 2078
-2.72309995 -2.28959990 0.36669999 85 75 109 2285
-2.72200012 -2.28870010 0.37259999 101 95 129 25874
-2.72099996 -2.28789997 0.37340000 101 95 129 36414
-2.72200012 -2.28870010 0.37459999 117 114 145 46617
-2.72070003 -2.28760004 0.37639999 159 159 185 50370
-2.72099996 -2.28789997 0.37740001 211 214 233 50557
-2.72029996 -2.28730011 0.37840000 239 245 255 50580
-2.72000003 -2.28699994 0.37930000 239 245 255 50412
-2.71910000 -2.28629994 0.38220000 237 247 248 50454
-2.71969986 -2.28679991 0.38429999 243 249 249 50625
-2.71969986 -2.28670001 0.38530001 244 248 249 50537
-2.71950006 -2.28660011 0.38630000 244 248 249 50559
-2.71910000 -2.28629994 0.38720000 244 248 249 50474
-2.71840000 -2.28570008 0.38810000 245 249 250 50434
-2.71880007 -2.28600001 0.38920000 245 249 250 50433
-2.71749997 -2.28489995 0.38999999 243 247 248 50519
-2.71759987 -2.28500009 0.39199999 241 245 246 50276
-2.71720004 -2.28469992 0.39300001 240 244 245 50375
-2.71689987 -2.28439999 0.39489999 241 245 246 50355
-2.71650004 -2.28410006 0.39590001 243 247 248 50239
-2.71609998 -2.28380013 0.39690000 243 247 248 50377
-2.71640015 -2.28399992 0.39890000 243 247 248 50585
-2.71549988 -2.28329992 0.39980000 243 247 248 50522
-2.71569991 -2.28340006 0.40079999 243 247 248 50357
-2.71519995 -2.28299999 0.40169999 243 247 248 50358
-2.71449995 -2.28240013 0.40259999 243 247 248 50400
-2.71460009 -2.28250003 0.40470001 243 247 248 50545
-2.71469998 -2.28259993 0.40570000 242 248 248 50481
-2.71469998 -2.28259993 0.40669999 242 248 248 50439
-2.71399999 -2.28200006 0.40759999 242 251 250 50420
-2.71409988 -2.28200006 0.40860000 240 249 248 50280
-2.71309996 -2.28119993 0.40950000 240 249 248 50226
-2.71339989 -2.28150010 0.41049999 243 251 253 50441
-2.71379995 -2.28180003 0.41159999 241 249 251 50461
-2.73600006 -2.29920006 0.31040001 191 189 202 50367
-2.73640013 -2.29960012 0.31140000 236 235 249 50469
-2.73549986 -2.29879999 0.31330001 241 243 255 50348
-2.73570013 -2.29900002 0.31430000 243 246 251 50308
-2.73469996 -2.29809999 0.31520000 242 246 249 50310
-2.73500013 -2.29839993 0.31630000 242 246 249 50492
-2.73440003 -2.29789996 0.31720001 242 246 249 50515
-2.73409986 -2.29760003 0.31819999 242 246 249 50431
-2.73409986 -2.29769993 0.32020000 242 246 249 50431
-2.73420000 -2.29769993 0.32120001 243 247 250 50472
-2.73300004 -2.29670000 0.32210001 243 247 250 50434
-2.73290014 -2.29660010 0.32310000 242 246 249 50373
-2.73259997 -2.29640007 0.32409999 242 246 249 50455
-2.73320007 -2.29690003 0.32510000 242 246 249 50495
-2.73220015 -2.29600000 0.32699999 242 246 249 50314
-2.73280001 -2.29649997 0.32810000 242 246 249 50293
-2.73199987 -2.29579997 0.32900000 243 247 250 50414
-2.73169994 -2.29559994 0.33100000 246 250 253 50354
-2.73140001 -2.29530001 0.33199999 246 250 253 50415
-2.73059988 -2.29469991 0.33289999 245 249 252 50316
-2.73040009 -2.29449987 0.33379999 245 249 252 50297
-2.73070002 -2.29469991 0.33489999 243 247 250 50239
-2.73070002 -2.29480004 0.33590001 243 247 250 50375
-2.73009992 -2.29430008 0.33780000 241 246 250 50258
-2.72979999 -2.29399991 0.33980000 240 245 251 50075
-2.72959995 -2.29379988 0.34079999 240 245 251 45996
-2.72919989 -2.29349995 0.34180000 242 246 255 38453
-2.72880006 -2.29320002 0.34270000 242 246 255 32271
-2.72889996 -2.29320002 0.34369999 240 242 254 21339
-2.72849989 -2.29290009 0.34470001 217 219 232 12035
-2.72700000 -2.29169989 0.35460001 84 80 105 2157
-2.72469997 -2.28970003 0.36629999 85 76 105 2200
-2.72250009 -2.28789997 0.37099999 87 79 116 6721
-2.72280002 -2.28810000 0.37410000 117 114 145 32239
-2.72200012 -2.28749990 0.37799999 239 245 255 50577
-2.72099996 -2.28660011 0.37889999 239 245 255 50558
-2.72099996 -2.28660011 0.37990001 239 248 253 50536
-2.72029996 -2.28600001 0.38080001 239 248 253 50371
-2.72049999 -2.28620005 0.38280001 243 253 252 50431
-2.72000003 -2.28579998 0.38380000 243 249 249 50626
-2.71939993 -2.28530002 0.38569999 244 248 249 50671
-2.71959996 -2.28550005 0.38769999 244 248 249 50538
-2.71930003 -2.28520012 0.38870001 245 249 250 50433
-2.71910000 -2.28509998 0.38970000 243 247 248 50604
-2.71899986 -2.28489995 0.39070001 243 247 248 50649
-2.71819997 -2.28430009 0.39160001 241 245 246 50435
-2.71869993 -2.28460002 0.39260000 240 244 245 50434
-2.71780014 -2.28390002 0.39350000 240 244 245 50478
-2.71819997 -2.28419995 0.39460000 241 245 246 50540
-2.71799994 -2.28410006 0.39550000 243 247 248 50334
-2.71640015 -2.28279996 0.39730000 243 247 248 50337
-2.71640015 -2.28270006 0.39829999 243 247 248 50418
-2.71700001 -2.28329992 0.39940000 243 247 248 50316
-2.71549988 -2.28200006 0.40120000 243 247 248 50359
-2.71549988 -2.28200006 0.40220001 243 247 248 50439
-2.71650004 -2.28279996 0.40340000 243 247 248 50675
-2.71609998 -2.28240013 0.40430000 243 247 248 50501
-2.71589994 -2.28230000 0.40529999 243 247 248 50377
-2.71479988 -2.28139997 0.40810001 242 251 250 50320
-2.71499991 -2.28160000 0.40920001 240 249 248 50358
-2.71490002 -2.28150010 0.41119999 243 251 253 50481
-2.71449995 -2.28119993 0.41209999 241 249 251 50300
-2.73609996 -2.29800010 0.31279999 246 245 255 50289
-2.73619986 -2.29800010 0.31380001 240 243 250 50231
-2.73589993 -2.29780006 0.31479999 240 243 250 50328
-2.73589993 -2.29780006 0.31580001 240 244 247 50328
-2.73539996 -2.29740000 0.31670001 241 245 248 50349
-2.73539996 -2.29730010 0.31770000 241 245 248 50309
-2.73430014 -2.29649997 0.31860000 242 246 249 50124
-2.73409986 -2.29629993 0.32060000 242 246 249 50312
-2.73479986 -2.29690003 0.32170001 242 246 249 50370
-2.73490000 -2.29699993 0.32269999 242 246 249 50431
-2.73360014 -2.29579997 0.32359999 242 246 249 50393
-2.73329997 -2.29570007 0.32460001 242 246 249 50373
-2.73309994 -2.29550004 0.32550001 240 244 247 50313
-2.73370004 -2.29600000 0.32760000 242 246 249 50292
-2.73309994 -2.29539990 0.32850000 245 249 252 50274
-2.73230004 -2.29480004 0.32949999 245 249 252 50295
-2.73239994 -2.29489994 0.33050001 246 250 253 50334
-2.73259997 -2.29509997 0.33149999 245 249 252 50353
-2.73250008 -2.29489994 0.33250001 245 249 252 50237
-2.73140001 -2.29399991 0.33340001 244 248 251 50416
-2.73129988 -2.29399991 0.33440000 244 248 251 50277
-2.73189998 -2.29439998 0.33539999 244 248 251 50295
-2.73099995 -2.29369998 0.33629999 244 247 252 50220
-2.73070002 -2.29349995 0.33730000 236 241 247 50183
-2.73119998 -2.29390001 0.33840001 236 241 247 50127
-2.73020005 -2.29299998 0.33930001 242 246 255 48900
-2.73049998 -2.29329991 0.34029999 244 248 255 42235
-2.73020005 -2.29299998 0.34130001 244 248 255 33025
-2.72939992 -2.29229999 0.34220001 232 236 248 24942
-2.73000002 -2.29290009 0.34330001 207 209 224 15978
-2.72989988 -2.29279995 0.34430000 207 209 224 8057
-2.72819996 -2.29130006 0.34810001 95 93 115 2414
-2.72869992 -2.29180002 0.35110000 85 81 106 2332
-2.72810006 -2.29130006 0.35210001 84 78 106 2110
-2.72550011 -2.28909993 0.36179999 85 77 100 2350
-2.72370005 -2.28749990 0.36860001 85 75 109 2385
-2.72309995 -2.28710008 0.37349999 91 84 118 18171
-2.72280002 -2.28679991 0.37450001 90 85 117 30289
-2.72270012 -2.28679991 0.37549999 112 109 136 41360
-2.72200012 -2.28620005 0.37740001 163 164 185 50451
-2.72149992 -2.28570008 0.37930000 215 218 235 50494
-2.72149992 -2.28570008 0.38040000 240 246 255 50370
-2.72149992 -2.28570008 0.38139999 242 251 255 50291
-2.72049999 -2.28489995 0.38220000 242 251 255 50293
-2.72060013 -2.28489995 0.38319999 240 248 251 50495
-2.72060013 -2.28500009 0.38420001 241 246 249 50716
-2.71990013 -2.28430009 0.38510001 241 246 249 50765
-2.72039986 -2.28480005 0.38620001 243 247 248 50516
-2.72000003 -2.28450012 0.38720000 243 247 248 50475
-2.72049999 -2.28489995 0.38830000 245 249 250 50474
-2.71939993 -2.28390002 0.38909999 245 249 250 50540
-2.71959996 -2.28410006 0.39210001 244 248 249 50517
-2.71840000 -2.28310013 0.39399999 238 242 243 50499
-2.71840000 -2.28310013 0.39500001 238 242 243 50374
-2.71850014 -2.28320003 0.39800000 243 247 248 50354
-2.71819997 -2.28299999 0.39899999 243 247 248 50374
-2.71740007 -2.28230000 0.39989999 243 247 248 50221
-2.71740007 -2.28230000 0.40189999 243 247 248 50457
-2.71640015 -2.28139997 0.40270001 243 247 248 50501
-2.71700001 -2.28189993 0.40380001 243 247 248 50417
-2.71659994 -2.28160000 0.40680000 243 247 248 50458
-2.71580005 -2.28090000 0.40770000 244 250 250 50545
-2.71539998 -2.28060007 0.40860000 242 251 250 50399
-2.71479988 -2.28009987 0.40950000 242 251 250 50380
-2.71460009 -2.27990007 0.41049999 241 249 251 50483
-2.71479988 -2.28009987 0.41249999 237 245 247 48000
-2.73790002 -2.29820013 0.31040001 148 142 156 50346
-2.73799992 -2.29830003 0.31140000 206 201 221 50306
-2.73729992 -2.29769993 0.31240001 247 244 255 50249
-2.73670006 -2.29719996 0.31330001 247 244 255 50328
-2.73740005 -2.29780006 0.31439999 243 243 251 50428
-2.73689985 -2.29740000 0.31529999 242 246 249 50622
-2.73710012 -2.29760003 0.31639999 242 246 249 50490
-2.73589993 -2.29660010 0.31729999 243 247 250 50431
-2.73619986 -2.29679990 0.31830001 243 247 250 50213
-2.73600006 -2.29660010 0.31930000 243 247 250 50232
-2.73500013 -2.29579997 0.32010001 243 247 250 50432
-2.73519993 -2.29600000 0.32220000 242 246 249 50411
-2.73539996 -2.29609990 0.32319999 242 246 249 50390
-2.73510003 -2.29579997 0.32420000 242 246 249 50452
-2.73420000 -2.29509997 0.32510000 242 246 249 50312
-2.73479986 -2.29559994 0.32620001 241 245 248 50292
-2.73399997 -2.29500008 0.32810000 244 248 251 50392
-2.73420000 -2.29509997 0.32910001 245 249 252 50495
-2.73370004 -2.29469991 0.33010000 242 246 249 50332
-2.73309994 -2.29419994 0.33100000 242 246 249 50255
-2.73350000 -2.29449987 0.33210000 240 244 247 50274
-2.73309994 -2.29419994 0.33300000 240 244 247 50314
-2.73239994 -2.29360008 0.33390000 240 244 247 50257
-2.73180008 -2.29309988 0.33489999 241 245 248 50277
-2.73220015 -2.29340005 0.33690000 242 245 250 50276
-2.73210001 -2.29329991 0.33890000 241 245 255 43864
-2.73150015 -2.29279995 0.34090000 234 237 252 28675
-2.73129988 -2.29270005 0.34189999 203 206 223 18839
-2.73009992 -2.29169989 0.34270000 203 206 223 10335
-2.72950006 -2.29110003 0.34770000 87 84 111 2371
-2.72900009 -2.29069996 0.34860000 87 84 111 2432
-2.72830009 -2.29020000 0.35249999 87 81 109 2242
-2.72799993 -2.28990006 0.35749999 89 80 107 2085
-2.72779989 -2.28970003 0.35949999 81 73 97 2117
-2.72560000 -2.28789997 0.36330000 82 79 100 2192
-2.72609997 -2.28830004 0.36629999 84 78 106 2160
-2.72460008 -2.28710008 0.36910000 85 76 107 2235
-2.72390008 -2.28640008 0.37210000 82 72 106 4128
-2.72309995 -2.28579998 0.37500000 89 82 115 22885
-2.72350001 -2.28609991 0.37599999 96 91 121 34675
-2.72250009 -2.28530002 0.37689999 116 113 140 44482
-2.72340012 -2.28600001 0.37799999 166 167 188 50213
-2.72239995 -2.28520012 0.37889999 166 167 188 50272
-2.72230005 -2.28509998 0.37990001 223 226 245 50431
-2.72189999 -2.28480005 0.38080001 242 248 255 50494
-2.72210002 -2.28489995 0.38190001 242 248 255 50431
-2.72180009 -2.28469992 0.38490000 240 245 249 50390
-2.72079992 -2.28390002 0.38569999 242 246 247 50454
-2.72140002 -2.28439999 0.38780001 242 246 247 50515
-2.72070003 -2.28380013 0.38970000 245 249 250 50603
-2.72039986 -2.28349996 0.39070001 245 249 250 50604
-2.72020006 -2.28340006 0.39269999 245 249 250 50496
-2.71950006 -2.28270006 0.39359999 245 249 250 50497
-2.71889997 -2.28230000 0.39449999 241 245 246 50541
-2.71930003 -2.28259993 0.39550000 243 247 248 50540
-2.71880007 -2.28220010 0.39649999 243 247 248 50415
-2.71880007 -2.28209996 0.39750001 243 247 248 50436
-2.71810007 -2.28160000 0.40040001 243 247 248 50336
-2.71790004 -2.28139997 0.40140000 243 247 248 50458
-2.71740007 -2.28099990 0.40230000 243 247 248 50543
-2.71720004 -2.28080010 0.40329999 243 247 248 50398
-2.71749997 -2.28110003 0.40430000 243 247 248 50397
-2.71720004 -2.28080010 0.40529999 243 247 248 50438
-2.71740007 -2.28099990 0.40630001 242 248 248 50417
-2.71650004 -2.28029990 0.40720001 241 250 249 50502
-2.71670008 -2.28040004 0.40820000 241 250 249 50480
-2.71569991 -2.27959991 0.41010001 240 248 250 50379
-2.73830009 -2.29719996 0.31090000 206 201 221 50048
-2.73860002 -2.29740000 0.31189999 206 201 221 50346
-2.73839998 -2.29730010 0.31290001 247 244 255 50366
-2.73850012 -2.29740000 0.31389999 243 243 251 50532
-2.73799992 -2.29699993 0.31490001 243 243 251 50643
-2.73790002 -2.29690003 0.31590000 242 246 249 50512
-2.73659992 -2.29579997 0.31670001 243 247 250 50472
-2.73589993 -2.29519987 0.31869999 243 247 250 50371
-2.73640013 -2.29559994 0.31970000 243 247 250 50472
-2.73619986 -2.29550004 0.32069999 243 247 250 50310
-2.73570013 -2.29509997 0.32170001 242 246 249 50371
-2.73539996 -2.29480004 0.32260001 242 246 249 50273
-2.73549986 -2.29489994 0.32370001 242 246 249 50197
-2.73539996 -2.29480004 0.32460001 242 246 249 50069
-2.73539996 -2.29480004 0.32570001 241 245 248 50197
-2.73420000 -2.29379988 0.32650000 241 245 248 50180
-2.73530006 -2.29469991 0.32760000 244 248 251 50272
-2.73440003 -2.29399991 0.32850000 245 249 252 50496
-2.73449993 -2.29399991 0.32960001 245 249 252 50475
-2.73350000 -2.29320002 0.33050001 242 246 249 50256
-2.73390007 -2.29349995 0.33149999 240 244 247 50143
-2.73379993 -2.29349995 0.33250001 240 244 247 50054
-2.73320007 -2.29299998 0.33340001 240 244 247 50163
-2.73290014 -2.29270005 0.33440000 241 245 248 50219
-2.73250008 -2.29229999 0.33640000 242 245 250 49860
-2.73250008 -2.29229999 0.33739999 235 239 250 45642
-2.73259997 -2.29239988 0.33840001 235 239 250 38432
-2.73269987 -2.29250002 0.33939999 241 245 255 29978
-2.73239994 -2.29229999 0.34040001 234 237 252 21775
-2.73040009 -2.29060006 0.34419999 157 158 178 2678
-2.73009992 -2.29029989 0.34610000 94 92 116 2439
-2.72919989 -2.28959990 0.35200000 87 81 109 2217
-2.72950006 -2.28990006 0.35310000 87 81 109 2175
-2.72720003 -2.28789997 0.36080000 82 77 99 2192
-2.72760010 -2.28819990 0.36289999 82 79 100 2142
-2.72490001 -2.28600001 0.36960000 83 73 107 2185
-2.72550011 -2.28649998 0.37270001 83 73 107 3250
-2.72410011 -2.28530002 0.37349999 83 73 107 6003
-2.72460008 -2.28570008 0.37459999 89 82 115 11000
-2.72480011 -2.28590012 0.37660000 116 113 140 31028
-2.72449994 -2.28559995 0.37760001 116 113 140 42050
-2.72309995 -2.28450012 0.37840000 166 167 188 48464
-2.72289991 -2.28430009 0.37940001 166 167 188 50311
-2.72309995 -2.28439999 0.38040000 223 226 245 50514
-2.72210002 -2.28360009 0.38229999 242 248 255 50392
-2.72230005 -2.28380013 0.38530001 242 246 247 50391
-2.72180009 -2.28340006 0.38620001 242 246 247 50412
-2.72250009 -2.28399992 0.38730001 242 246 247 50390
-2.72169995 -2.28329992 0.38820001 243 247 248 50559
-2.72130013 -2.28290009 0.38920000 243 247 248 50496
-2.72060013 -2.28230000 0.39210001 247 251 252 50455
-2.72049999 -2.28230000 0.39309999 245 249 250 50476
-2.72070003 -2.28240013 0.39410001 241 245 246 50649
-2.71959996 -2.28150010 0.39800000 243 247 248 50435
-2.71899986 -2.28099990 0.40090001 243 247 248 50478
-2.71829987 -2.28049994 0.40180001 243 247 248 50376
-2.71889997 -2.28099990 0.40290001 243 247 248 50335
-2.71860003 -2.28069997 0.40390000 243 247 248 50396
-2.71829987 -2.28040004 0.40480000 243 247 248 50586
-2.71740007 -2.27970004 0.40669999 242 248 248 50565
-2.71670008 -2.27909994 0.40759999 241 250 249 50420
-2.71700001 -2.27939987 0.40869999 243 252 251 50223
-2.71659994 -2.27900004 0.41060001 240 248 250 50319
-2.73909998 -2.29660010 0.31140000 185 180 202 50210
-2.73909998 -2.29660010 0.31240001 236 233 254 50406
-2.73909998 -2.29660010 0.31340000 236 233 254 50620
-2.73889995 -2.29649997 0.31439999 244 244 254 50620
-2.73900008 -2.29649997 0.31540000 244 248 251 50642
-2.73790002 -2.29559994 0.31630000 244 248 251 50388
-2.73679996 -2.29469991 0.31819999 246 250 253 50330
-2.73760009 -2.29539990 0.31930000 246 250 253 50450
-2.73679996 -2.29469991 0.32020000 244 248 251 50291
-2.73670006 -2.29460001 0.32120001 242 246 249 50291
-2.73720002 -2.29500008 0.32229999 242 246 249 50289
-2.73689985 -2.29480004 0.32330000 241 245 248 50176
-2.73670006 -2.29460001 0.32420000 242 246 249 50195
-2.73570013 -2.29369998 0.32510000 242 246 249 50235
-2.73619986 -2.29419994 0.32620001 242 246 249 50252
-2.73539996 -2.29349995 0.32710001 245 249 252 50412
-2.73580003 -2.29390001 0.32820001 245 249 252 50371
-2.73549986 -2.29360008 0.32910001 244 248 251 50412
-2.73430014 -2.29259992 0.33100000 239 243 246 50314
-2.73440003 -2.29270005 0.33199999 238 242 245 50237
-2.73479986 -2.29299998 0.33309999 242 246 249 50124
-2.73399997 -2.29239988 0.33399999 242 246 249 50020
-2.73420000 -2.29250002 0.33500001 244 248 251 49639
-2.73440003 -2.29259992 0.33600000 243 246 253 47000
-2.73379993 -2.29209995 0.33800000 244 248 255 32317
-2.73350000 -2.29189992 0.33890000 226 232 248 23685
-2.73280001 -2.29139996 0.33989999 226 232 248 15478
-2.73220015 -2.29089999 0.34380001 112 112 136 2428
-2.73210001 -2.29080009 0.34580001 87 87 113 2314
-2.72989988 -2.28889990 0.35460001 90 81 110 2167
-2.72959995 -2.28859997 0.35760000 88 78 103 2067
-2.72749996 -2.28690004 0.36539999 85 81 104 2153
-2.72690010 -2.28640008 0.36629999 85 81 104 2085
-2.72550011 -2.28520012 0.37210000 83 72 102 2235
-2.72569990 -2.28539991 0.37520000 92 85 116 9360
-2.72469997 -2.28460002 0.37599999 92 85 116 16550
-2.72530007 -2.28500009 0.37709999 94 89 119 27967
-2.72480011 -2.28460002 0.37799999 123 120 149 38535
-2.72480011 -2.28460002 0.37900001 123 120 149 47328
-2.72440004 -2.28430009 0.38000000 177 177 203 50157
-2.72370005 -2.28369999 0.38190001 221 223 248 50451
-2.72410011 -2.28399992 0.38299999 238 241 255 50409
-2.72379994 -2.28380013 0.38490000 243 246 253 50348
-2.72350001 -2.28360009 0.38589999 245 249 250 50409
-2.72270012 -2.28290009 0.38679999 244 248 249 50494
-2.72289991 -2.28310013 0.38780001 244 248 249 50646
-2.72280002 -2.28290009 0.38880000 242 246 247 50558
-2.72180009 -2.28209996 0.38970000 243 247 248 50475
-2.72140002 -2.28180003 0.39060000 243 247 248 50517
-2.72169995 -2.28200006 0.39170000 247 251 252 50516
-2.72169995 -2.28200006 0.39269999 246 250 251 50671
-2.72130013 -2.28169990 0.39359999 246 250 251 50605
-2.72119999 -2.28160000 0.39460000 243 247 248 50560
-2.72070003 -2.28110003 0.39559999 243 247 248 50583
-2.72099996 -2.28139997 0.39660001 243 247 248 50454
-2.72000003 -2.28060007 0.39850000 243 247 248 50296
-2.71959996 -2.28020000 0.40040001 243 247 248 50375
-2.71920013 -2.27990007 0.40140000 243 247 248 50356
-2.71920013 -2.27990007 0.40239999 243 247 248 50277
-2.71939993 -2.27999997 0.40439999 243 247 248 50415
-2.71930003 -2.27999997 0.40540001 243 247 248 50355
-2.71819997 -2.27909994 0.40619999 243 247 248 50377
-2.71759987 -2.27850008 0.40820000 242 247 250 50167
-2.71790004 -2.27889991 0.40920001 242 250 252 50148
-2.71810007 -2.27900004 0.41029999 238 246 248 50184
-2.74000001 -2.29600000 0.31189999 162 154 178 50191
-2.74009991 -2.29609990 0.31400001 241 241 251 50426
-2.73959994 -2.29570007 0.31490001 241 241 251 50287
-2.73970008 -2.29579997 0.31590000 243 247 250 50345
-2.73880005 -2.29500008 0.31680000 247 251 254 50387
-2.73839998 -2.29469991 0.31779999 247 251 254 50513
-2.73790002 -2.29430008 0.31869999 247 251 254 50309
-2.73880005 -2.29500008 0.31979999 244 248 251 50211
-2.73819995 -2.29449987 0.32080001 244 248 251 50270
-2.73710012 -2.29360008 0.32170001 241 245 248 50234
-2.73689985 -2.29340005 0.32269999 241 245 248 50234
-2.73769999 -2.29410005 0.32380000 241 245 248 50270
-2.73699999 -2.29349995 0.32470000 243 247 250 50350
-2.73679996 -2.29329991 0.32570001 241 245 248 50234
-2.73679996 -2.29340005 0.32670000 241 245 248 50272
-2.73619986 -2.29279995 0.32859999 243 247 250 50351
-2.73629999 -2.29290009 0.33059999 240 244 247 50516
-2.73530006 -2.29209995 0.33149999 242 246 249 50393
-2.73460007 -2.29150009 0.33239999 242 246 249 50126
-2.73530006 -2.29209995 0.33350000 247 251 254 50107
-2.73500013 -2.29189992 0.33450001 247 251 254 48096
-2.73510003 -2.29189992 0.33550000 247 251 254 43532
-2.73490000 -2.29180002 0.33649999 240 245 251 36496
-2.73469996 -2.29159999 0.33750001 233 239 253 28660
-2.73469996 -2.29159999 0.33849999 233 239 253 19850
-2.73329997 -2.29040003 0.33930001 193 198 218 11217
-2.73239994 -2.28970003 0.34220001 106 108 131 2510
-2.73280001 -2.28999996 0.34729999 84 81 110 2171
-2.73079991 -2.28830004 0.35210001 85 76 105 2142
-2.73040009 -2.28800011 0.35400000 85 76 103 2167
-2.72810006 -2.28600001 0.36280000 81 82 102 2135
-2.72600007 -2.28430009 0.37660000 94 87 120 13350
-2.72589993 -2.28419995 0.37760001 94 87 120 23525
-2.72499990 -2.28349996 0.37950000 126 122 155 43382
-2.72499990 -2.28349996 0.38049999 126 122 155 50051
-2.72460008 -2.28310013 0.38139999 178 177 209 50389
-2.72379994 -2.28250003 0.38229999 231 231 255 50494
-2.72399998 -2.28259993 0.38440001 240 243 252 50390
-2.72350001 -2.28220010 0.38530001 246 250 251 50452
-2.72390008 -2.28250003 0.38630000 246 250 251 50390
-2.72289991 -2.28169990 0.38720000 248 252 253 50559
-2.72350001 -2.28220010 0.38929999 242 246 247 50624
-2.72270012 -2.28150010 0.39019999 240 244 245 50412
-2.72219992 -2.28110003 0.39109999 243 247 248 50454
-2.72300005 -2.28180003 0.39230001 243 247 248 50580
-2.72210002 -2.28099990 0.39309999 243 247 248 50604
-2.72219992 -2.28110003 0.39420000 240 244 245 50581
-2.72109985 -2.28020000 0.39500001 240 244 245 50540
-2.72079992 -2.27990007 0.39800000 243 247 248 50315
-2.72099996 -2.28009987 0.39899999 243 247 248 50374
-2.72060013 -2.27970004 0.40000001 243 247 248 50415
-2.72049999 -2.27970004 0.40090001 243 247 248 50415
-2.72070003 -2.27979994 0.40200001 243 247 248 50127
-2.72039986 -2.27959991 0.40300000 243 247 248 50163
-2.71910000 -2.27850008 0.40380001 243 247 248 50222
-2.71980000 -2.27909994 0.40490001 243 247 248 50436
-2.71980000 -2.27909994 0.40590000 242 248 248 50375
-2.71899986 -2.27850008 0.40680000 242 248 248 50240
-2.71860003 -2.27810001 0.40770000 240 248 250 50279
-2.71799994 -2.27760005 0.40860000 241 249 251 50460
-2.71850014 -2.27799988 0.40970001 241 249 251 50438
-2.71889997 -2.27839994 0.41080001 238 246 248 50183
-2.74110007 -2.29559994 0.31150001 162 154 178 45039
-2.74060011 -2.29519987 0.31450000 241 241 251 50229
-2.73979998 -2.29449987 0.31540000 243 247 250 50367
-2.74009991 -2.29480004 0.31639999 243 247 250 50532
-2.73970008 -2.29439998 0.31740001 247 251 254 50428
-2.73950005 -2.29430008 0.31840000 247 251 254 50512
-2.73900008 -2.29390001 0.32030001 244 248 251 50388
-2.73889995 -2.29379988 0.32130000 241 245 248 50308
-2.73869991 -2.29360008 0.32229999 241 245 248 50194
-2.73790002 -2.29290009 0.32319999 241 245 248 50271
-2.73850012 -2.29349995 0.32429999 243 247 250 50120
-2.73819995 -2.29320002 0.32630000 241 245 248 50251
-2.73780012 -2.29279995 0.32720000 244 248 251 50195
-2.73710012 -2.29229999 0.32820001 244 248 251 50371
-2.73749995 -2.29259992 0.32920000 243 247 250 50452
-2.73659992 -2.29180002 0.33210000 242 246 249 50215
-2.73640013 -2.29169989 0.33309999 247 251 254 50088
-2.73500013 -2.29060006 0.33390000 247 251 254 46664
-2.73589993 -2.29130006 0.33510000 247 251 254 38771
-2.73449993 -2.29010010 0.33890000 193 198 218 6785
-2.73350000 -2.28929996 0.34279999 106 108 131 2264
-2.73280001 -2.28870010 0.34470001 84 84 112 2239
-2.73250008 -2.28839993 0.34570000 84 84 112 2200
-2.73230004 -2.28819990 0.34770000 85 80 110 2132
-2.73199987 -2.28800011 0.34970000 84 77 108 2150
-2.73199987 -2.28800011 0.35470000 85 76 103 2100
-2.72779989 -2.28450012 0.36820000 84 79 102 2110
-2.72779989 -2.28450012 0.36919999 84 79 102 2021
-2.72630000 -2.28329992 0.37810001 102 96 130 18628
-2.72659993 -2.28349996 0.37909999 102 96 130 27650
-2.72630000 -2.28320003 0.38010001 126 122 155 39892
-2.72589993 -2.28290009 0.38100001 178 177 209 50015
-2.72589993 -2.28290009 0.38200000 178 177 209 50387
-2.72490001 -2.28209996 0.38389999 240 243 252 50668
-2.72510004 -2.28220010 0.38600001 246 250 251 50600
-2.72460008 -2.28180003 0.38690001 248 252 253 50714
-2.72460008 -2.28180003 0.38789999 248 252 253 50832
-2.72350001 -2.28090000 0.39080000 240 244 245 50494
-2.72370005 -2.28110003 0.39179999 243 247 248 50350
-2.72280002 -2.28029990 0.39469999 240 244 245 50453
-2.72259998 -2.28009987 0.39559999 243 247 248 50560
-2.72280002 -2.28029990 0.39669999 243 247 248 50453
-2.72239995 -2.27999997 0.39760000 243 247 248 50293
-2.72130013 -2.27900004 0.39850000 243 247 248 50335
-2.72090006 -2.27869987 0.39940000 243 247 248 50416
-2.72140002 -2.27909994 0.40050000 243 247 248 50394
-2.72079992 -2.27859998 0.40140000 243 247 248 50258
-2.72060013 -2.27850008 0.40239999 243 247 248 50239
-2.72079992 -2.27859998 0.40340000 243 247 248 50057
-2.72090006 -2.27869987 0.40439999 243 247 248 50296
-2.72060013 -2.27850008 0.40540001 243 247 248 50395
-2.71950006 -2.27749991 0.40820000 240 248 250 50397
-2.71880007 -2.27690005 0.40910000 241 249 251 50399
-2.71930003 -2.27740002 0.41020000 238 246 248 50298
-2.74119997 -2.29439998 0.31290001 182 177 200 50047
-2.74149990 -2.29469991 0.31400001 234 234 244 50246
-2.74070001 -2.29399991 0.31490001 234 234 244 50427
-2.74110007 -2.29430008 0.31590000 238 242 245 50325
-2.73990011 -2.29329991 0.31779999 243 247 250 50308
-2.74029994 -2.29360008 0.31889999 245 249 252 50387
-2.73909998 -2.29270005 0.31970000 243 247 250 50389
-2.73920012 -2.29279995 0.32080001 243 247 250 50232
-2.73900008 -2.29259992 0.32170001 241 245 248 50270
-2.73889995 -2.29250002 0.32380000 243 247 250 50251
-2.73860002 -2.29220009 0.32470000 245 249 252 50271
-2.73869991 -2.29229999 0.32570001 240 244 247 50329
-2.73790002 -2.29159999 0.32659999 240 244 247 50330
-2.73810005 -2.29180002 0.32769999 244 248 251 50311
-2.73780012 -2.29159999 0.32859999 244 248 251 50453
-2.73699999 -2.29089999 0.32960001 244 248 251 50332
-2.73670006 -2.29060006 0.33050001 241 245 248 50180
-2.73720002 -2.29110003 0.33160001 243 247 250 50053
-2.73629999 -2.29029989 0.33250001 243 247 250 49835
-2.73629999 -2.29029989 0.33350000 245 249 252 41782
-2.73580003 -2.28990006 0.33440000 235 239 242 32832
-2.73659992 -2.29049993 0.33550000 235 239 242 24710
-2.73530006 -2.28950000 0.33739999 185 188 205 8960
-2.73490000 -2.28909993 0.33840001 185 188 205 4471
-2.73460007 -2.28889990 0.33930001 144 149 171 2914
-2.73510003 -2.28929996 0.34240001 83 85 110 2214
-2.73420000 -2.28850007 0.34330001 84 84 112 2296
-2.73409986 -2.28850007 0.34529999 86 85 116 2264
-2.73360014 -2.28810000 0.34930000 82 75 108 2092
-2.73269987 -2.28730011 0.35220000 85 76 105 2182
-2.73090005 -2.28579998 0.36199999 83 81 102 2075
-2.73000002 -2.28500009 0.36590001 83 81 102 2092
-2.72700000 -2.28259993 0.37660000 93 86 120 4317
-2.72690010 -2.28250003 0.37860000 90 84 120 13857
-2.72659993 -2.28220010 0.37950000 94 90 127 24503
-2.72589993 -2.28160000 0.38040000 94 90 127 36942
-2.72659993 -2.28220010 0.38150001 136 131 171 45932
-2.72539997 -2.28119993 0.38240001 186 185 216 50233
-2.72620010 -2.28180003 0.38350001 186 185 216 50555
-2.72550011 -2.28119993 0.38440001 224 226 238 50557
-2.72589993 -2.28160000 0.38550001 238 242 243 50712
-2.72480011 -2.28069997 0.38630000 238 242 243 50715
-2.72569990 -2.28139997 0.38740000 246 250 251 50783
-2.72449994 -2.28049994 0.38830000 244 248 249 50580
-2.72460008 -2.28049994 0.38929999 244 248 249 50370
-2.72379994 -2.27990007 0.39219999 243 247 248 50217
-2.72359991 -2.27970004 0.39320001 243 247 248 50143
-2.72320008 -2.27929997 0.39410001 240 244 245 50274
-2.72329998 -2.27939987 0.39620000 243 247 248 50495
-2.72350001 -2.27959991 0.39719999 243 247 248 50432
-2.72329998 -2.27939987 0.39820001 243 247 248 50312
-2.72309995 -2.27929997 0.39910001 243 247 248 50538
-2.72119999 -2.27769995 0.40290001 243 247 248 50316
-2.72119999 -2.27769995 0.40390000 243 247 248 50336
-2.72060013 -2.27719998 0.40580001 243 247 248 50437
-2.72130013 -2.27780008 0.40689999 243 247 248 50415
-2.72109985 -2.27760005 0.40790001 243 248 251 50477
-2.72070003 -2.27729988 0.40880001 241 249 251 50296
-2.74169993 -2.29349995 0.31340000 163 156 174 50286
-2.74169993 -2.29349995 0.31439999 228 228 240 50325
-2.74210000 -2.29390001 0.31549999 231 235 244 50344
-2.74149990 -2.29340005 0.31639999 231 235 244 50229
-2.74140000 -2.29329991 0.31840000 241 246 252 50306
-2.74090004 -2.29290009 0.31940001 241 246 252 50210
-2.74070001 -2.29279995 0.32040000 240 245 249 50174
-2.73950005 -2.29169989 0.32120001 240 245 248 50158
-2.74009991 -2.29220009 0.32229999 240 245 248 50250
-2.74000001 -2.29209995 0.32330000 243 249 249 50269
-2.73909998 -2.29139996 0.32420000 246 252 252 50158
-2.74000001 -2.29209995 0.32530001 246 252 252 50156
-2.73830009 -2.29069996 0.32710001 243 249 249 50371
-2.73860002 -2.29099989 0.32920000 243 248 251 50272
-2.73869991 -2.29110003 0.33019999 240 245 249 50177
-2.73720002 -2.28979993 0.33100000 240 245 249 50037
-2.73769999 -2.29020000 0.33210000 240 245 251 46289
-2.73760009 -2.29010010 0.33309999 236 240 249 39260
-2.73710012 -2.28970003 0.33399999 236 240 249 29471
-2.73670006 -2.28940010 0.33600000 196 200 212 11335
-2.73640013 -2.28909993 0.33700001 196 200 212 5407
-2.73659992 -2.28929996 0.33899999 108 110 133 2467
-2.73580003 -2.28859997 0.33989999 108 110 133 2467
-2.73500013 -2.28800011 0.34390000 83 83 111 2353
-2.73570013 -2.28850007 0.34490001 85 82 111 2335
-2.73150015 -2.28500009 0.35850000 90 77 97 2160
-2.73150015 -2.28500009 0.36050001 87 78 99 1960
-2.72959995 -2.28349996 0.37029999 83 75 96 2160
-2.72849989 -2.28250003 0.37220001 84 74 99 2046
-2.72810006 -2.28220010 0.37610000 89 80 109 2721
-2.72740006 -2.28160000 0.37799999 81 74 108 6017
-2.72770000 -2.28189993 0.37909999 81 74 108 11582
-2.72679996 -2.28110003 0.38000000 87 81 117 20814
-2.72729993 -2.28150010 0.38100001 113 107 145 31753
-2.72760010 -2.28180003 0.38209999 113 107 145 42042
-2.72539997 -2.27999997 0.38580000 225 230 236 50515
-2.72560000 -2.28009987 0.38690001 241 246 250 50493
-2.72560000 -2.28009987 0.38789999 241 246 250 50330
-2.72539997 -2.27990007 0.38880000 244 247 252 50311
-2.72510004 -2.27970004 0.39080000 243 247 250 50452
-2.72460008 -2.27929997 0.39170000 246 250 253 50351
-2.72490001 -2.27950001 0.39280000 247 251 252 50216
-2.72399998 -2.27880001 0.39370000 247 251 252 50255
-2.72410011 -2.27880001 0.39469999 244 248 249 50475
-2.72399998 -2.27869987 0.39570001 243 247 248 50581
-2.72350001 -2.27830005 0.39660001 243 247 248 50434
-2.72370005 -2.27850008 0.39760000 243 247 246 50475
-2.72289991 -2.27780008 0.39850000 243 247 246 50540
-2.72289991 -2.27780008 0.40050000 243 247 246 50497
-2.72329998 -2.27819991 0.40160000 243 247 246 50496
-2.72250009 -2.27749991 0.40250000 243 247 246 50435
-2.72210002 -2.27710009 0.40340000 243 247 248 50519
-2.72140002 -2.27659988 0.40430000 243 247 248 50586
-2.72219992 -2.27729988 0.40549999 243 247 248 50540
-2.72099996 -2.27620006 0.40630001 243 247 248 50438
-2.72099996 -2.27629995 0.40730000 242 250 252 50337
-2.72130013 -2.27649999 0.40830001 242 250 252 50297
-2.74250007 -2.29290009 0.31500000 228 228 240 50385
-2.74270010 -2.29299998 0.31600001 231 235 244 50344
-2.74230003 -2.29270005 0.31690001 238 243 249 50325
-2.74130011 -2.29189992 0.31990001 240 245 249 50155
-2.74060011 -2.29130006 0.32080001 240 245 249 50348
-2.74119997 -2.29180002 0.32190001 240 245 248 50288
-2.74009991 -2.29089999 0.32269999 243 249 249 50451
-2.73979998 -2.29069996 0.32370001 243 249 249 50195
-2.73959994 -2.29049993 0.32470000 246 252 252 50330
-2.74049997 -2.29119992 0.32580000 239 245 245 50328
-2.74000001 -2.29080009 0.32670000 239 245 245 50430
-2.74029994 -2.29110003 0.32780001 243 249 249 50429
-2.73909998 -2.29010010 0.32969999 243 248 251 50052
-2.73970008 -2.29049993 0.33070001 240 245 249 46785
-2.73850012 -2.28959990 0.33160001 240 245 251 40671
-2.73860002 -2.28959990 0.33260000 240 245 251 33071
-2.73740005 -2.28859997 0.33550000 217 221 230 7596
-2.73679996 -2.28810000 0.34050000 88 88 112 2196
-2.73600006 -2.28749990 0.34140000 88 88 112 2278
-2.73549986 -2.28710008 0.34630001 86 81 113 2075
-2.73169994 -2.28390002 0.36090001 83 81 102 2017
-2.73079991 -2.28310013 0.36480001 82 80 101 2085
-2.73040009 -2.28279996 0.36680001 82 77 99 2003
-2.72810006 -2.28090000 0.38060001 87 81 117 16035
-2.72819996 -2.28090000 0.38260001 138 135 166 41067
-2.72799993 -2.28080010 0.38360000 138 135 166 48617
-2.72690010 -2.27979994 0.38440001 206 208 221 50252
-2.72740006 -2.28029990 0.38550001 225 230 236 50408
-2.72659993 -2.27959991 0.38740000 241 246 250 50232
-2.72589993 -2.27909994 0.38830000 244 247 252 50272
-2.72569990 -2.27889991 0.38929999 244 247 252 50452
-2.72550011 -2.27869987 0.39019999 243 247 250 50453
-2.72639990 -2.27939987 0.39140001 246 250 253 50600
-2.72560000 -2.27880001 0.39230001 246 250 253 50494
-2.72600007 -2.27909994 0.39330000 247 251 252 50472
-2.72449994 -2.27789998 0.39410001 244 248 249 50604
-2.72390008 -2.27729988 0.39710000 243 247 246 50334
-2.72429991 -2.27769995 0.39809999 243 247 246 50496
-2.72399998 -2.27740002 0.39910001 243 247 246 50454
-2.72420001 -2.27760005 0.40009999 243 247 246 50495
-2.72420001 -2.27760005 0.40110001 243 247 246 50495
-2.72270012 -2.27629995 0.40189999 243 247 246 50416
-2.72340012 -2.27690005 0.40300000 243 247 248 50455
-2.72320008 -2.27679992 0.40400001 243 247 248 50695
-2.72270012 -2.27629995 0.40490001 243 247 248 50720
-2.72169995 -2.27550006 0.40580001 243 247 248 50521
-2.72169995 -2.27550006 0.40680000 243 247 248 50479
-2.74370003 -2.29259992 0.31450000 191 192 210 50265
-2.74370003 -2.29259992 0.31549999 226 231 251 50265
-2.74329996 -2.29229999 0.31650001 226 231 251 50364
-2.74280000 -2.29189992 0.31750000 241 247 255 50365
-2.74280000 -2.29180002 0.31850001 237 243 255 50267
-2.74180007 -2.29099989 0.31930000 237 243 255 50193
-2.74270010 -2.29180002 0.32049999 241 248 254 50229
-2.74230003 -2.29139996 0.32139999 238 246 248 50386
-2.74160004 -2.29080009 0.32339999 235 244 241 50269
-2.74149990 -2.29080009 0.32440001 246 255 250 50249
-2.74079990 -2.29020000 0.32530001 246 255 250 50251
-2.74060011 -2.28999996 0.32630000 240 249 244 50270
-2.74110007 -2.29040003 0.32730001 242 251 248 50368
-2.74020004 -2.28959990 0.32820001 242 251 248 50195
-2.74060011 -2.28999996 0.32929999 239 247 249 50121
-2.73959994 -2.28909993 0.33019999 235 242 250 44614
-2.73920012 -2.28880000 0.33109999 235 242 250 36267
-2.73950005 -2.28909993 0.33219999 236 242 254 27621
-2.73939991 -2.28900003 0.33320001 221 226 245 19103
-2.73920012 -2.28880000 0.33410001 221 226 245 10714
-2.73799992 -2.28780007 0.34000000 93 91 113 2285
-2.73729992 -2.28730011 0.34200001 87 83 108 2371
-2.73510003 -2.28539991 0.35380000 89 76 102 2107
-2.73250008 -2.28320003 0.36149999 86 78 102 1992
-2.73210001 -2.28290009 0.36739999 83 75 99 2085
-2.73099995 -2.28200006 0.37230000 87 79 103 2117
-2.72979999 -2.28099990 0.37320000 87 79 103 2178
-2.72880006 -2.28009987 0.37709999 88 79 106 2475
-2.72950006 -2.28069997 0.38020000 86 80 108 7007
-2.72810006 -2.27959991 0.38400000 147 148 168 44457
-2.72830009 -2.27970004 0.38499999 147 148 168 49389
-2.72819996 -2.27959991 0.38600001 194 197 214 50212
-2.72659993 -2.27830005 0.38880000 244 248 255 50411
-2.72679996 -2.27850008 0.38990000 240 244 255 50472
-2.72729993 -2.27889991 0.39089999 240 244 255 50600
-2.72659993 -2.27830005 0.39179999 244 249 255 50430
-2.72609997 -2.27789998 0.39280000 246 251 255 50371
-2.72600007 -2.27780008 0.39379999 246 251 255 50473
-2.72550011 -2.27740002 0.39469999 241 247 247 50495
-2.72539997 -2.27729988 0.39669999 243 247 246 50351
-2.72490001 -2.27690005 0.39760000 243 248 244 50352
-2.72519994 -2.27710009 0.39870000 243 248 244 50412
-2.72519994 -2.27710009 0.39969999 243 248 244 50495
-2.72429991 -2.27640009 0.40050000 243 248 244 50476
-2.72469997 -2.27670002 0.40259999 243 248 244 50626
-2.72359991 -2.27579999 0.40450001 245 247 246 50583
-2.72370005 -2.27589989 0.40549999 245 247 246 50374
-2.72300005 -2.27530003 0.40640000 243 247 248 50335
-2.72329998 -2.27559996 0.40740001 244 251 255 50354
-2.72280002 -2.27519989 0.40840000 244 251 255 50164
-2.74370003 -2.29130006 0.31600001 200 206 230 50385
-2.74320006 -2.29089999 0.31889999 231 239 252 50154
-2.74219990 -2.29010010 0.31979999 235 244 251 50212
-2.74259996 -2.29040003 0.32089999 235 244 251 50211
-2.74239993 -2.29020000 0.32179999 237 247 248 50249
-2.74280000 -2.29060006 0.32290000 234 245 241 50248
-2.74169993 -2.28970003 0.32380000 234 245 241 50289
-2.74169993 -2.28959990 0.32580000 239 250 244 50289
-2.74200010 -2.28990006 0.32679999 239 250 244 50066
-2.74049997 -2.28870010 0.32769999 236 246 245 50017
-2.74090004 -2.28900003 0.32870001 240 250 252 46960
-2.74049997 -2.28859997 0.32969999 240 250 252 39246
-2.73970008 -2.28800011 0.33660001 104 105 135 2392
-2.73900008 -2.28740001 0.33860001 92 90 114 2353
-2.73839998 -2.28690004 0.34150001 84 80 103 2178
-2.73769999 -2.28629994 0.34240001 85 81 104 2146
-2.73659992 -2.28539991 0.34630001 87 79 103 2189
-2.73629999 -2.28520012 0.34930000 86 76 101 2017
-2.73629999 -2.28520012 0.35030001 86 76 101 2221
-2.73570013 -2.28469992 0.35420001 89 76 102 1967
-2.73399997 -2.28320003 0.35800001 91 77 103 1978
-2.73329997 -2.28259993 0.36500001 87 79 103 1903
-2.73290014 -2.28230000 0.36899999 83 75 99 1992
-2.73070002 -2.28049994 0.37869999 87 79 103 2646
-2.72930002 -2.27929997 0.38260001 96 91 114 18907
-2.72939992 -2.27939987 0.38460001 110 110 134 40275
-2.72880006 -2.27880001 0.38550001 152 157 179 46792
-2.72880006 -2.27880001 0.38650000 152 157 179 50212
-2.72770000 -2.27789998 0.38740000 205 210 230 50451
-2.72749996 -2.27780008 0.38830000 238 241 255 50330
-2.72790003 -2.27810001 0.39039999 242 246 255 50492
-2.72760010 -2.27780008 0.39140001 239 243 252 50450
-2.72620010 -2.27670002 0.39420000 246 251 254 50495
-2.72620010 -2.27670002 0.39520001 246 251 254 50453
-2.72609997 -2.27659988 0.39620000 244 248 247 50453
-2.72580004 -2.27629995 0.39710000 244 249 245 50516
-2.72560000 -2.27620006 0.39809999 244 249 245 50538
-2.72589993 -2.27649999 0.39919999 243 248 244 50453
-2.72510004 -2.27570009 0.40009999 243 248 244 50455
-2.72589993 -2.27640009 0.40120000 243 248 244 50580
-2.72560000 -2.27620006 0.40210000 243 248 244 50716
-2.72490001 -2.27559996 0.40300000 243 248 244 50788
-2.72519994 -2.27579999 0.40410000 243 248 244 50671
-2.72350001 -2.27440000 0.40490001 244 248 247 50396
-2.72449994 -2.27519989 0.40599999 244 248 251 50218
-2.72420001 -2.27500010 0.40799999 241 248 254 50144
-2.74480009 -2.29089999 0.31650001 200 206 230 50116
-2.74469995 -2.29089999 0.31750000 232 239 255 50208
-2.74410009 -2.29040003 0.31850001 231 239 252 50029
-2.74300003 -2.28940010 0.32030001 235 244 251 50102
-2.74390006 -2.29020000 0.32150000 237 247 248 50426
-2.74349999 -2.28990006 0.32240000 237 247 248 50267
-2.74329996 -2.28970003 0.32339999 234 245 241 50346
-2.74309993 -2.28950000 0.32539999 239 250 244 50048
-2.74259996 -2.28909993 0.32630000 239 250 244 48035
