//X Y Z R G B Intensity
12.45149994 -9.36199951 -0.30675000 158 167 176 24957
12.45125008 -9.36149979 -0.30575001 158 167 176 25342
12.45100021 -9.36149979 -0.30475000 158 167 176 26046
12.44925022 -9.36025047 -0.30375001 158 167 176 26460
12.44925022 -9.36025047 -0.30274999 208 216 227 26785
12.44925022 -9.35999966 -0.30175000 208 216 227 27117
12.44775009 -9.35900021 -0.30074999 208 216 227 28042
12.44925022 -9.35999966 -0.29975000 208 216 227 27692
12.44899940 -9.35999966 -0.29875001 208 216 227 27925
12.44874954 -9.35974979 -0.29775000 208 216 227 26892
12.44775009 -9.35900021 -0.29675001 208 216 227 26782
12.44849968 -9.35949993 -0.29574999 223 229 243 27453
12.44775009 -9.35900021 -0.29475001 223 229 243 27689
12.44575024 -9.35750008 -0.29374999 223 229 243 28399
12.44649982 -9.35799980 -0.29275000 223 229 243 28403
12.44600010 -9.35774994 -0.29175001 223 229 243 28282
12.44499969 -9.35700035 -0.29075000 223 229 243 28521
12.44499969 -9.35700035 -0.28975001 225 228 243 28521
12.44324970 -9.35550022 -0.28850001 225 228 243 26446
12.44474983 -9.35675049 -0.28749999 225 228 243 25924
12.44400024 -9.35624981 -0.28650001 225 228 243 26132
12.44474983 -9.35675049 -0.28549999 225 228 243 26032
12.44425011 -9.35624981 -0.28450000 225 228 243 26664
12.44225025 -9.35499954 -0.28349999 225 228 243 26232
12.44274998 -9.35525036 -0.28250000 222 221 239 26339
12.44199944 -9.35474968 -0.28150001 222 221 239 26128
12.44099998 -9.35375023 -0.28049999 222 221 239 25917
12.44099998 -9.35400009 -0.27950001 222 221 239 25617
12.44174957 -9.35449982 -0.27849999 222 221 239 26335
12.44099998 -9.35375023 -0.27750000 222 221 239 25917
12.44050026 -9.35350037 -0.27649999 230 227 248 25414
12.44000053 -9.35325050 -0.27550000 230 227 248 24835
12.44000053 -9.35325050 -0.27450001 230 227 248 24375
12.43974972 -9.35299969 -0.27350000 230 227 248 24017
12.43924999 -9.35274982 -0.27250001 230 227 248 23585
12.43849945 -9.35200024 -0.27149999 230 227 248 23928
12.43774986 -9.35149956 -0.27050000 230 227 248 24278
12.43725014 -9.35099983 -0.26949999 229 224 246 24739
12.43700027 -9.35099983 -0.26850000 229 224 246 24460
12.43774986 -9.35149956 -0.26750001 229 224 246 22371
12.43650055 -9.35050011 -0.26650000 229 224 246 19000
12.43774986 -9.35149956 -0.26550001 229 224 246 13082
12.43725014 -9.35099983 -0.26449999 229 224 246 8371
12.43550014 -9.34975052 -0.26350001 229 224 246 5164
12.43424988 -9.34875011 -0.26249999 200 192 216 4032
12.43350029 -9.34825039 -0.26050001 200 192 216 5235
12.43350029 -9.34825039 -0.25950000 200 192 216 7942
12.43400002 -9.34850025 -0.25850001 200 192 216 12385
12.43350029 -9.34825039 -0.25749999 200 192 216 17150
12.43400002 -9.34875011 -0.25650001 168 160 183 21207
12.43424988 -9.34899998 -0.25549999 168 160 183 23742
12.43300056 -9.34774971 -0.25450000 168 160 183 25107
12.43200016 -9.34700012 -0.25350001 168 160 183 26207
12.43350029 -9.34825039 -0.25250000 168 160 183 27414
12.43175030 -9.34700012 -0.25150001 168 160 183 26850
12.43124962 -9.34650040 -0.25049999 168 160 183 26414
12.43074989 -9.34625053 -0.24950001 205 197 220 25996
12.43000031 -9.34549999 -0.24824999 205 197 220 25992
12.42950058 -9.34525013 -0.24725001 205 197 220 25992
12.43074989 -9.34625053 -0.24625000 205 197 220 25100
12.42774963 -9.34399986 -0.24525000 205 197 220 25785
12.42850018 -9.34449959 -0.24425000 205 197 220 26950
12.42825031 -9.34424973 -0.24325000 233 228 248 27521
12.42924976 -9.34500027 -0.24225000 233 228 248 27521
12.42774963 -9.34399986 -0.24124999 233 228 248 27635
12.42650032 -9.34300041 -0.24025001 233 228 248 27060
12.42799950 -9.34399986 -0.23925000 233 228 248 27289
12.42675018 -9.34325027 -0.23825000 233 228 248 27400
12.42625046 -9.34274960 -0.23725000 233 228 248 27982
12.42749977 -9.34375000 -0.23625000 234 231 248 28107
12.42675018 -9.34325027 -0.23525000 234 231 248 28849
12.42574978 -9.34224987 -0.23424999 234 231 248 26089
12.42650032 -9.34300041 -0.23325001 234 231 248 25882
12.42525005 -9.34200001 -0.23225001 234 231 248 25878
12.42525005 -9.34224987 -0.23125000 234 231 248 25578
12.42449951 -9.34150028 -0.23025000 233 232 246 26507
12.42275047 -9.34025002 -0.22925000 233 232 246 26392
12.42275047 -9.34025002 -0.22825000 233 232 246 25671
12.42300034 -9.34049988 -0.22724999 233 232 246 25771
12.42275047 -9.34025002 -0.22624999 233 232 246 26610
12.42150021 -9.33924961 -0.22525001 233 232 246 27046
12.42150021 -9.33924961 -0.22425000 233 232 246 26932
12.42150021 -9.33924961 -0.22325000 233 236 245 26500
12.42024994 -9.33825016 -0.22200000 233 236 245 26282
12.42049980 -9.33850002 -0.22100000 233 236 245 26603
12.42125034 -9.33899975 -0.22025000 233 236 245 26932
12.41975021 -9.33800030 -0.21900000 233 236 245 27378
12.41874981 -9.33699989 -0.21799999 233 236 245 26817
12.41975021 -9.33774948 -0.21725000 227 234 240 27267
12.41950035 -9.33774948 -0.21625000 227 234 240 27614
12.41849995 -9.33699989 -0.21525000 227 234 240 26492
12.41800022 -9.33650017 -0.21425000 227 234 240 26600
12.42024994 -9.33825016 -0.21325000 227 234 240 27382
12.41950035 -9.33774948 -0.21224999 227 234 240 27267
12.41874981 -9.33724976 -0.21125001 227 234 240 25364
12.41774940 -9.33650017 -0.20999999 224 234 235 21735
12.41825008 -9.33675003 -0.20900001 224 234 235 14832
12.41600037 -9.33500004 -0.20800000 224 234 235 7728
12.41674995 -9.33574963 -0.20700000 224 234 235 4082
12.41324997 -9.33300018 -0.20600000 224 234 235 1907
12.45174980 -9.36324978 -0.31424999 114 125 131 10400
12.45224953 -9.36375046 -0.31325001 114 125 131 17889
12.45224953 -9.36375046 -0.31224999 114 125 131 22635
12.45224953 -9.36375046 -0.31125000 114 125 131 25546
12.45149994 -9.36324978 -0.31025001 114 125 131 26050
12.45050049 -9.36225033 -0.30925000 158 167 176 25742
12.45075035 -9.36250019 -0.30825001 158 167 176 24864
12.45075035 -9.36250019 -0.30724999 158 167 176 24675
12.44899940 -9.36124992 -0.30625001 158 167 176 24396
12.44950008 -9.36149979 -0.30524999 158 167 176 25539
12.44874954 -9.36100006 -0.30425000 158 167 176 25739
12.44974995 -9.36174965 -0.30325001 158 167 176 26682
12.44899940 -9.36124992 -0.30225000 208 216 227 27692
12.44849968 -9.36075020 -0.30125001 208 216 227 28410
12.44824982 -9.36075020 -0.30024999 208 216 227 28410
12.44799995 -9.36050034 -0.29925001 208 216 227 28657
12.44899940 -9.36124992 -0.29824999 208 216 227 27928
12.44750023 -9.35999966 -0.29699999 208 216 227 27228
12.44649982 -9.35925007 -0.29600000 223 229 243 27450
12.44700050 -9.35974979 -0.29499999 223 229 243 27800
12.44600010 -9.35900021 -0.29400000 223 229 243 28525
12.44549942 -9.35849953 -0.29300001 223 229 243 29028
12.44575024 -9.35875034 -0.29200000 223 229 243 28403
12.44499969 -9.35824966 -0.29100001 223 229 243 28399
12.44549942 -9.35849953 -0.28999999 223 229 243 28035
12.44474983 -9.35799980 -0.28900000 225 228 243 27682
12.44400024 -9.35750008 -0.28799999 225 228 243 25924
12.44324970 -9.35700035 -0.28700000 225 228 243 25924
12.44350052 -9.35700035 -0.28600001 225 228 243 25924
12.44400024 -9.35750008 -0.28500000 225 228 243 26028
12.44225025 -9.35599995 -0.28299999 222 221 239 25621
12.44000053 -9.35449982 -0.28200001 222 221 239 25817
12.44174957 -9.35575008 -0.28099999 222 221 239 26767
12.44075012 -9.35499954 -0.28000000 222 221 239 27096
12.44199944 -9.35599995 -0.27900001 222 221 239 25721
12.44225025 -9.35624981 -0.27800000 222 221 239 26771
12.43974972 -9.35424995 -0.27700001 222 221 239 25814
12.44050026 -9.35474968 -0.27599999 230 227 248 25517
12.43774986 -9.35274982 -0.27500001 230 227 248 24739
12.43849945 -9.35325050 -0.27399999 230 227 248 24103
12.43900013 -9.35375023 -0.27300000 230 227 248 24196
12.43774986 -9.35274982 -0.27175000 230 227 248 24371
12.43650055 -9.35175037 -0.27074999 230 227 248 24642
12.43599987 -9.35149956 -0.26975000 229 224 246 23750
12.43700027 -9.35225010 -0.26875001 229 224 246 23582
12.43774986 -9.35274982 -0.26800001 229 224 246 22075
12.43675041 -9.35200024 -0.26675001 229 224 246 17525
12.43424988 -9.35000038 -0.26574999 229 224 246 11639
12.43449974 -9.35025024 -0.26475000 229 224 246 6825
12.43350029 -9.34949970 -0.26374999 229 224 246 4385
12.43700027 -9.35225010 -0.26275000 200 192 216 3003
12.43325043 -9.34949970 -0.26175001 200 192 216 2542
12.43375015 -9.34975052 -0.26075000 200 192 216 2985
12.43300056 -9.34924984 -0.25975001 200 192 216 4228
12.43249989 -9.34899998 -0.25874999 200 192 216 6825
12.43449974 -9.35025024 -0.25775000 200 192 216 10535
12.43424988 -9.35000038 -0.25674999 168 160 183 14660
12.43424988 -9.35000038 -0.25575000 168 160 183 19560
12.43400002 -9.35000038 -0.25475001 168 160 183 22596
12.43325043 -9.34924984 -0.25375000 168 160 183 24917
12.43200016 -9.34825039 -0.25275001 168 160 183 26417
12.43175030 -9.34825039 -0.25174999 168 160 183 26960
12.43149948 -9.34825039 -0.25075001 168 160 183 26417
12.43074989 -9.34749985 -0.24975000 205 197 220 25996
12.42899990 -9.34599972 -0.24875000 205 197 220 25789
12.42899990 -9.34625053 -0.24775000 205 197 220 24625
12.42899990 -9.34625053 -0.24675000 205 197 220 24532
12.42875004 -9.34599972 -0.24575000 205 197 220 25289
12.42875004 -9.34599972 -0.24474999 205 197 220 26953
12.42799950 -9.34549999 -0.24375001 233 228 248 27750
12.42875004 -9.34599972 -0.24275000 233 228 248 27992
12.42799950 -9.34525013 -0.24175000 233 228 248 27639
12.42650032 -9.34424973 -0.24075000 233 228 248 27746
12.42774963 -9.34525013 -0.23975000 233 228 248 26732
12.42700005 -9.34449959 -0.23875000 233 228 248 27517
12.42625046 -9.34424973 -0.23774999 233 228 248 28228
12.42700005 -9.34449959 -0.23675001 234 231 248 28978
12.42625046 -9.34399986 -0.23575000 234 231 248 28228
12.42525005 -9.34325027 -0.23475000 234 231 248 26835
12.42424965 -9.34249973 -0.23375000 234 231 248 25778
12.42549992 -9.34350014 -0.23275000 234 231 248 25878
12.42424965 -9.34274960 -0.23175000 234 231 248 25982
12.42399979 -9.34224987 -0.23074999 233 232 246 26507
12.42350006 -9.34200001 -0.22950000 233 232 246 26396
12.42300034 -9.34150028 -0.22849999 233 232 246 25978
12.42125034 -9.34025002 -0.22750001 233 232 246 25871
12.42125034 -9.34025002 -0.22650000 233 232 246 26078
12.42099953 -9.34000015 -0.22550000 233 232 246 26932
12.42175007 -9.34074974 -0.22450000 233 232 246 26935
12.42175007 -9.34049988 -0.22350000 233 236 245 27160
12.42150021 -9.34049988 -0.22250000 233 236 245 27271
12.41925049 -9.33899975 -0.22149999 233 236 245 27614
12.42000008 -9.33950043 -0.22050001 233 236 245 27500
12.41975021 -9.33924961 -0.21950001 233 236 245 26928
12.41899967 -9.33850002 -0.21850000 233 236 245 27267
12.41825008 -9.33825016 -0.21750000 227 234 240 26925
12.41925049 -9.33874989 -0.21650000 227 234 240 27378
12.41825008 -9.33800030 -0.21550000 227 234 240 26492
12.41749954 -9.33749962 -0.21450000 227 234 240 26382
12.41749954 -9.33749962 -0.21349999 227 234 240 27150
12.41724968 -9.33724976 -0.21250001 227 234 240 26707
12.41749954 -9.33749962 -0.21150000 227 234 240 25360
12.41724968 -9.33724976 -0.21050000 224 234 235 22407
12.41774940 -9.33774948 -0.20950000 224 234 235 16567
12.41450024 -9.33524990 -0.20850000 224 234 235 9617
12.41275024 -9.33399963 -0.20750000 224 234 235 4360
12.41575050 -9.33625031 -0.20649999 224 234 235 2125
12.45300007 -9.36549950 -0.31500000 114 125 131 5875
12.45149994 -9.36450005 -0.31375000 114 125 131 11614
12.45174980 -9.36450005 -0.31275001 114 125 131 18335
12.45075035 -9.36375046 -0.31174999 114 125 131 22875
12.45174980 -9.36450005 -0.31099999 114 125 131 24867
12.45050049 -9.36349964 -0.30974999 114 125 131 24960
12.45050049 -9.36375046 -0.30875000 158 167 176 24585
12.44950008 -9.36275005 -0.30774999 158 167 176 24860
12.44974995 -9.36299992 -0.30675000 158 167 176 24128
12.45075035 -9.36375046 -0.30575001 158 167 176 24675
12.44849968 -9.36199951 -0.30475000 158 167 176 25242
12.44775009 -9.36149979 -0.30375001 158 167 176 26042
12.44750023 -9.36149979 -0.30274999 208 216 227 26892
12.44824982 -9.36174965 -0.30175000 208 216 227 27232
12.44674969 -9.36075020 -0.30074999 208 216 227 27339
12.44775009 -9.36149979 -0.29975000 208 216 227 27575
12.44575024 -9.35999966 -0.29875001 208 216 227 28039
12.44725037 -9.36124992 -0.29775000 208 216 227 27114
12.44624996 -9.36050034 -0.29675001 208 216 227 26782
12.44474983 -9.35925007 -0.29574999 223 229 243 27567
12.44624996 -9.36025047 -0.29475001 223 229 243 27921
12.44674969 -9.36075020 -0.29374999 223 229 243 29032
12.44600010 -9.36025047 -0.29275000 223 229 243 28778
12.44524956 -9.35949993 -0.29175001 223 229 243 28282
12.44474983 -9.35925007 -0.29075000 223 229 243 27567
12.44524956 -9.35949993 -0.28975001 225 228 243 26139
12.44250011 -9.35750008 -0.28850001 225 228 243 25524
12.44375038 -9.35849953 -0.28775001 225 228 243 25824
12.44174957 -9.35700035 -0.28650001 225 228 243 25821
12.44274998 -9.35774994 -0.28549999 225 228 243 26239
12.44099998 -9.35649967 -0.28450000 225 228 243 26339
12.44174957 -9.35700035 -0.28349999 225 228 243 25821
12.43974972 -9.35550022 -0.28250000 222 221 239 26021
12.43974972 -9.35550022 -0.28150001 222 221 239 26657
12.44050026 -9.35599995 -0.28049999 222 221 239 26657
12.43849945 -9.35449982 -0.27950001 222 221 239 25714
12.44025040 -9.35575008 -0.27849999 222 221 239 26128
12.43949986 -9.35525036 -0.27750000 222 221 239 25614
12.44025040 -9.35599995 -0.27649999 222 221 239 25517
12.43824959 -9.35424995 -0.27550000 230 227 248 25121
12.43824959 -9.35424995 -0.27450001 230 227 248 25217
12.43949986 -9.35525036 -0.27350000 230 227 248 25917
12.43725014 -9.35350037 -0.27250001 230 227 248 26117
12.43675041 -9.35325050 -0.27149999 230 227 248 25510
12.43550014 -9.35225010 -0.27050000 230 227 248 24550
12.43675041 -9.35325050 -0.26949999 229 224 246 23246
12.43624973 -9.35274982 -0.26850000 229 224 246 19860
12.43650055 -9.35299969 -0.26750001 229 224 246 14278
12.43550014 -9.35225010 -0.26650000 229 224 246 8600
12.43424988 -9.35124969 -0.26550001 229 224 246 5267
12.43550014 -9.35225010 -0.26449999 229 224 246 3467
12.43700027 -9.35350037 -0.26249999 200 192 216 1903
12.43650055 -9.35299969 -0.26150000 200 192 216 1989
12.43499947 -9.35200024 -0.25950000 200 192 216 3739
12.43074989 -9.34850025 -0.25850001 200 192 216 5775
12.43325043 -9.35050011 -0.25749999 200 192 216 9239
12.43274975 -9.35000038 -0.25650001 168 160 183 13342
12.43300056 -9.35025024 -0.25549999 168 160 183 18882
12.43175030 -9.34949970 -0.25450000 168 160 183 22285
12.43200016 -9.34949970 -0.25350001 168 160 183 25396
12.43074989 -9.34875011 -0.25250000 168 160 183 26103
12.43124962 -9.34899998 -0.25150001 168 160 183 26525
12.42950058 -9.34749985 -0.25025001 168 160 183 25792
12.42975044 -9.34774971 -0.24924999 205 197 220 25996
12.43000031 -9.34799957 -0.24824999 205 197 220 25292
12.42950058 -9.34774971 -0.24725001 205 197 220 25492
12.42825031 -9.34675026 -0.24625000 205 197 220 26517
12.42774963 -9.34650040 -0.24525000 205 197 220 27753
12.42899990 -9.34724998 -0.24425000 205 197 220 27753
12.42774963 -9.34650040 -0.24325000 233 228 248 27178
12.42574978 -9.34500027 -0.24225000 233 228 248 27632
12.42650032 -9.34549999 -0.24124999 233 228 248 27750
12.42724991 -9.34599972 -0.24025001 233 228 248 26732
12.42574978 -9.34500027 -0.23925000 233 228 248 27060
12.42549992 -9.34475040 -0.23825000 233 228 248 27396
12.42549992 -9.34475040 -0.23725000 234 231 248 27985
12.42525005 -9.34449959 -0.23625000 234 231 248 27746
12.42399979 -9.34375000 -0.23525000 234 231 248 26617
12.42525005 -9.34449959 -0.23424999 234 231 248 25882
12.42275047 -9.34274960 -0.23325001 234 231 248 25474
12.42350006 -9.34325027 -0.23225001 234 231 248 25278
12.42199993 -9.34224987 -0.23125000 234 231 248 25178
12.42325020 -9.34300041 -0.23025000 233 232 246 25278
12.42275047 -9.34274960 -0.22925000 233 232 246 25274
12.42224979 -9.34224987 -0.22825000 233 232 246 25874
12.42150021 -9.34175014 -0.22724999 233 232 246 26289
12.42099953 -9.34124947 -0.22624999 233 232 246 27503
12.42300034 -9.34300041 -0.22525001 233 232 246 27164
12.42074966 -9.34099960 -0.22400001 233 236 245 26935
12.42150021 -9.34175014 -0.22300000 233 236 245 28585
12.41950035 -9.34025002 -0.22200000 233 236 245 27967
12.42049980 -9.34099960 -0.22125000 233 236 245 27503
12.41975021 -9.34049988 -0.22025000 233 236 245 27042
12.41950035 -9.34025002 -0.21924999 233 236 245 27382
12.41950035 -9.34025002 -0.21825001 233 236 245 26932
12.41899967 -9.34000015 -0.21725000 227 234 240 26928
12.41774940 -9.33899975 -0.21625000 227 234 240 27039
12.41625023 -9.33774948 -0.21500000 227 234 240 26814
12.41800022 -9.33899975 -0.21400000 227 234 240 26492
12.41774940 -9.33899975 -0.21300000 227 234 240 26710
12.41800022 -9.33899975 -0.21224999 227 234 240 26817
12.41499996 -9.33675003 -0.21100000 227 234 240 25067
12.41674995 -9.33825016 -0.20999999 224 234 235 21310
12.41549969 -9.33724976 -0.20900001 224 234 235 14189
12.41374969 -9.33600044 -0.20800000 224 234 235 7646
12.41499996 -9.33675003 -0.20700000 224 234 235 3735
12.45125008 -9.36549950 -0.31424999 92 106 109 8817
12.45125008 -9.36549950 -0.31325001 92 106 109 15628
12.45324993 -9.36699963 -0.31224999 92 106 109 21317
12.45100021 -9.36499977 -0.31125000 92 106 109 23785
12.45075035 -9.36499977 -0.31025001 92 106 109 24775
12.45024967 -9.36474991 -0.30925000 161 172 178 24585
12.44799995 -9.36299992 -0.30825001 161 172 178 25050
12.44925022 -9.36375046 -0.30724999 161 172 178 24221
12.44899940 -9.36349964 -0.30625001 161 172 178 24400
12.44775009 -9.36275005 -0.30524999 161 172 178 25146
12.44674969 -9.36199951 -0.30425000 161 172 178 25142
12.44775009 -9.36275005 -0.30325001 161 172 178 25439
12.44700050 -9.36225033 -0.30225000 204 214 223 26146
12.44700050 -9.36199951 -0.30125001 204 214 223 26892
12.44674969 -9.36199951 -0.30024999 204 214 223 27571
12.44750023 -9.36250019 -0.29925001 204 214 223 27692
12.44799995 -9.36299992 -0.29824999 204 214 223 26789
12.44624996 -9.36149979 -0.29725000 204 214 223 26675
12.44549942 -9.36100006 -0.29624999 218 224 236 27571
12.44600010 -9.36149979 -0.29525000 218 224 236 27800
12.44474983 -9.36050034 -0.29400000 218 224 236 28903
12.44549942 -9.36100006 -0.29324999 218 224 236 29164
12.44400024 -9.35999966 -0.29200000 218 224 236 28525
12.44474983 -9.36050034 -0.29100001 218 224 236 27225
12.44449997 -9.36050034 -0.28999999 218 224 236 26242
12.44375038 -9.35974979 -0.28900000 224 227 242 25528
12.44350052 -9.35949993 -0.28799999 224 227 242 26032
12.44149971 -9.35824966 -0.28700000 224 227 242 26446
12.44199944 -9.35849953 -0.28600001 224 227 242 26553
12.44225025 -9.35849953 -0.28500000 224 227 242 26989
12.44174957 -9.35824966 -0.28400001 224 227 242 27103
12.44124985 -9.35774994 -0.28299999 228 227 245 26660
12.44000053 -9.35700035 -0.28200001 228 227 245 26550
12.44149971 -9.35799980 -0.28099999 228 227 245 26553
12.43875027 -9.35599995 -0.28000000 228 227 245 26228
12.43849945 -9.35575008 -0.27900001 228 227 245 25914
12.43924999 -9.35649967 -0.27800000 228 227 245 25817
12.43900013 -9.35624981 -0.27700001 228 227 245 25817
12.43875027 -9.35599995 -0.27599999 225 221 244 26021
12.43799973 -9.35550022 -0.27500001 225 221 244 26121
12.43750000 -9.35499954 -0.27399999 225 221 244 26978
12.43700027 -9.35449982 -0.27300000 225 221 244 26760
12.43675041 -9.35449982 -0.27200001 225 221 244 26121
12.43650055 -9.35424995 -0.27100000 225 221 244 25810
12.43575001 -9.35375023 -0.27000001 199 190 217 23750
12.43599987 -9.35400009 -0.26899999 199 190 217 18835
12.43575001 -9.35375023 -0.26800001 199 190 217 12389
12.43624973 -9.35400009 -0.26699999 199 190 217 7289
12.43474960 -9.35299969 -0.26574999 199 190 217 4178
12.43400002 -9.35249996 -0.26475000 199 190 217 2839
12.43624973 -9.35424995 -0.26374999 199 190 217 1885
12.43424988 -9.35249996 -0.26175001 149 139 166 1603
12.43225002 -9.35099983 -0.25975001 149 139 166 2242
12.43099976 -9.35025024 -0.25874999 149 139 166 3096
12.43225002 -9.35099983 -0.25775000 149 139 166 4842
12.43300056 -9.35175037 -0.25674999 111 101 128 8039
12.43225002 -9.35099983 -0.25575000 111 101 128 12157
12.43274975 -9.35149956 -0.25475001 111 101 128 17107
12.43074989 -9.35000038 -0.25375000 111 101 128 21339
12.43050003 -9.34975052 -0.25275001 111 101 128 24357
12.43099976 -9.35000038 -0.25174999 111 101 128 25796
12.43099976 -9.35000038 -0.25075001 111 101 128 25896
12.43050003 -9.34975052 -0.24975000 146 138 162 26417
12.43025017 -9.34949970 -0.24875000 146 138 162 26310
12.42875004 -9.34825039 -0.24775000 146 138 162 26414
12.42899990 -9.34875011 -0.24675000 146 138 162 27525
12.42899990 -9.34850025 -0.24575000 146 138 162 27407
12.42924976 -9.34875011 -0.24474999 146 138 162 27410
12.42625046 -9.34650040 -0.24375001 204 199 221 27289
12.42724991 -9.34724998 -0.24275000 204 199 221 27875
12.42574978 -9.34625053 -0.24175000 204 199 221 27175
12.42724991 -9.34724998 -0.24075000 204 199 221 27292
12.42549992 -9.34599972 -0.23975000 204 199 221 27285
12.42374992 -9.34475040 -0.23875000 204 199 221 27282
12.42475033 -9.34549999 -0.23774999 204 199 221 27060
12.42350006 -9.34449959 -0.23675001 236 233 252 27742
12.42374992 -9.34475040 -0.23575000 236 233 252 27057
12.42424965 -9.34500027 -0.23475000 236 233 252 26617
12.42374992 -9.34475040 -0.23375000 236 233 252 25678
12.42325020 -9.34424973 -0.23275000 236 233 252 25085
12.42325020 -9.34424973 -0.23175000 236 233 252 25378
12.42374992 -9.34475040 -0.23074999 238 237 251 24992
12.42125034 -9.34274960 -0.22950000 238 237 251 24985
12.42074966 -9.34249973 -0.22849999 238 237 251 25671
12.42125034 -9.34274960 -0.22750001 238 237 251 26185
12.42300034 -9.34424973 -0.22675000 238 237 251 26942
12.42074966 -9.34224987 -0.22550000 238 237 251 27275
12.42024994 -9.34200001 -0.22450000 238 237 251 27971
12.42000008 -9.34175014 -0.22350000 229 231 243 27732
12.42000008 -9.34200001 -0.22250000 229 231 243 28214
12.41950035 -9.34150028 -0.22149999 229 231 243 28214
12.41925049 -9.34124947 -0.22050001 229 231 243 27271
12.41800022 -9.34025002 -0.21950001 229 231 243 26928
12.41724968 -9.33975029 -0.21850000 229 231 243 27039
12.41874981 -9.34099960 -0.21750000 231 238 244 27267
12.41749954 -9.34000015 -0.21650000 231 238 244 27153
12.41674995 -9.33924961 -0.21550000 231 238 244 26925
12.41674995 -9.33924961 -0.21450000 231 238 244 26600
12.41650009 -9.33924961 -0.21349999 231 238 244 27375
12.41575050 -9.33874989 -0.21250001 231 238 244 27150
12.41549969 -9.33850002 -0.21150000 231 238 244 25260
12.41699982 -9.33950043 -0.21050000 228 238 239 21810
12.41475010 -9.33774948 -0.20950000 228 238 239 14635
12.41575050 -9.33874989 -0.20850000 228 238 239 7553
12.41424942 -9.33749962 -0.20750000 228 238 239 3950
12.41349983 -9.33699989 -0.20649999 228 238 239 1857
12.45050049 -9.36600018 -0.31500000 92 106 109 4542
12.45075035 -9.36625004 -0.31400001 92 106 109 10321
12.45199966 -9.36725044 -0.31299999 92 106 109 17185
12.45050049 -9.36600018 -0.31200001 92 106 109 21957
12.45075035 -9.36625004 -0.31099999 92 106 109 23785
12.45050049 -9.36600018 -0.31000000 92 106 109 24775
12.44950008 -9.36524963 -0.30875000 161 172 178 24960
12.44849968 -9.36450005 -0.30774999 161 172 178 24492
12.44874954 -9.36474991 -0.30675000 161 172 178 24957
12.44849968 -9.36450005 -0.30475000 161 172 178 25339
12.44725037 -9.36349964 -0.30375001 161 172 178 25335
12.44725037 -9.36375046 -0.30274999 161 172 178 26357
12.44700050 -9.36349964 -0.30175000 204 214 223 27232
12.44674969 -9.36324978 -0.30074999 204 214 223 27003
12.44674969 -9.36324978 -0.29975000 204 214 223 27232
12.44750023 -9.36375046 -0.29875001 204 214 223 26896
12.44549942 -9.36225033 -0.29775000 204 214 223 26142
12.44575024 -9.36250019 -0.29675001 204 214 223 26142
12.44499969 -9.36199951 -0.29574999 218 224 236 27114
12.44549942 -9.36225033 -0.29475001 218 224 236 28285
12.44449997 -9.36149979 -0.29374999 218 224 236 28525
12.44274998 -9.36025047 -0.29275000 218 224 236 27917
12.44324970 -9.36050034 -0.29175001 218 224 236 26778
12.44250011 -9.35999966 -0.29075000 218 224 236 25924
12.44274998 -9.36025047 -0.28975001 218 224 236 26239
12.44149971 -9.35925007 -0.28850001 224 227 242 26446
12.44274998 -9.36025047 -0.28775001 224 227 242 27107
12.44274998 -9.36025047 -0.28674999 224 227 242 26667
12.44250011 -9.35999966 -0.28575000 224 227 242 27564
12.44050026 -9.35849953 -0.28450000 224 227 242 27557
12.43974972 -9.35799980 -0.28349999 224 227 242 26767
12.43924999 -9.35750008 -0.28250000 228 227 245 26439
12.43974972 -9.35774994 -0.28150001 228 227 245 26442
12.43974972 -9.35799980 -0.28049999 228 227 245 26442
12.43949986 -9.35774994 -0.27950001 228 227 245 26232
12.43924999 -9.35750008 -0.27849999 228 227 245 26021
12.43849945 -9.35700035 -0.27750000 228 227 245 25917
12.43799973 -9.35675049 -0.27649999 228 227 245 26546
12.43924999 -9.35750008 -0.27550000 225 221 244 26985
12.43700027 -9.35599995 -0.27450001 225 221 244 26978
12.43650055 -9.35550022 -0.27350000 225 221 244 26542
12.43624973 -9.35525036 -0.27250001 225 221 244 26121
12.43650055 -9.35550022 -0.27149999 225 221 244 25024
12.43650055 -9.35550022 -0.27050000 225 221 244 22528
12.43525028 -9.35449982 -0.26949999 199 190 217 16721
12.43424988 -9.35375023 -0.26850000 199 190 217 10435
12.43400002 -9.35375023 -0.26750001 199 190 217 5760
12.43424988 -9.35375023 -0.26650000 199 190 217 3603
12.43499947 -9.35424995 -0.26449999 199 190 217 1564
12.43225002 -9.35225010 -0.26350001 199 190 217 1432
12.43525028 -9.35449982 -0.26249999 149 139 166 1382
12.43350029 -9.35325050 -0.25850001 149 139 166 2589
12.43225002 -9.35225010 -0.25749999 149 139 166 3971
12.43124962 -9.35149956 -0.25650001 111 101 128 6132
12.42975044 -9.35025024 -0.25549999 111 101 128 9646
12.43175030 -9.35200024 -0.25450000 111 101 128 14689
12.43050003 -9.35099983 -0.25350001 111 101 128 19439
12.43149948 -9.35175037 -0.25250000 111 101 128 22989
12.42975044 -9.35050011 -0.25150001 111 101 128 24725
12.42975044 -9.35050011 -0.25049999 111 101 128 25103
12.42899990 -9.34975052 -0.24950001 146 138 162 26207
12.42975044 -9.35050011 -0.24850000 146 138 162 26742
12.42700005 -9.34825039 -0.24725001 146 138 162 27178
12.42774963 -9.34899998 -0.24625000 146 138 162 26628
12.42724991 -9.34850025 -0.24525000 146 138 162 26517
12.42799950 -9.34924984 -0.24425000 146 138 162 27525
12.42625046 -9.34774971 -0.24325000 204 199 221 27989
12.42525005 -9.34700012 -0.24225000 204 199 221 27289
12.42724991 -9.34850025 -0.24124999 204 199 221 27753
12.42625046 -9.34774971 -0.24025001 204 199 221 27521
12.42500019 -9.34675026 -0.23925000 204 199 221 27175
12.42325020 -9.34549999 -0.23825000 204 199 221 26725
12.42399979 -9.34599972 -0.23725000 204 199 221 27396
12.42424965 -9.34625053 -0.23625000 236 233 252 26946
12.42399979 -9.34599972 -0.23525000 236 233 252 26728
12.42399979 -9.34599972 -0.23424999 236 233 252 26510
12.42424965 -9.34625053 -0.23325001 236 233 252 25782
12.42275047 -9.34525013 -0.23225001 236 233 252 25678
12.42049980 -9.34350014 -0.23125000 236 233 252 25082
12.42125034 -9.34399986 -0.23025000 238 237 251 25082
12.42125034 -9.34399986 -0.22925000 238 237 251 25674
12.42000008 -9.34300041 -0.22825000 238 237 251 26185
12.42150021 -9.34424973 -0.22724999 238 237 251 27278
12.42175007 -9.34449959 -0.22624999 238 237 251 27978
12.42074966 -9.34350014 -0.22525001 238 237 251 27857
12.42175007 -9.34424973 -0.22425000 238 237 251 28100
12.42074966 -9.34375000 -0.22325000 229 231 243 27507
12.41825008 -9.34175014 -0.22225000 229 231 243 27728
12.41849995 -9.34200001 -0.22125000 229 231 243 27617
12.41874981 -9.34224987 -0.22025000 229 231 243 27853
12.41699982 -9.34074974 -0.21924999 229 231 243 26817
12.41800022 -9.34175014 -0.21825001 229 231 243 26603
12.41724968 -9.34099960 -0.21725000 231 238 244 27496
12.41524982 -9.33950043 -0.21600001 231 238 244 27260
12.41699982 -9.34074974 -0.21525000 231 238 244 26928
12.41650009 -9.34049988 -0.21425000 231 238 244 27153
12.41699982 -9.34099960 -0.21325000 231 238 244 27614
12.41499996 -9.33950043 -0.21224999 231 238 244 26814
12.41650009 -9.34049988 -0.21125001 231 238 244 24146
12.41650009 -9.34049988 -0.21025001 228 238 239 18589
12.41424942 -9.33874989 -0.20925000 228 238 239 11639
12.41250038 -9.33749962 -0.20800000 228 238 239 5678
12.41374969 -9.33825016 -0.20700000 228 238 239 2742
12.41174984 -9.33675003 -0.20600000 228 238 239 1271
12.45050049 -9.36750031 -0.31424999 92 106 109 8160
12.45050049 -9.36725044 -0.31325001 92 106 109 14653
12.45149994 -9.36800003 -0.31224999 92 106 109 20325
12.44974995 -9.36674976 -0.31125000 92 106 109 23196
12.45075035 -9.36750031 -0.31025001 92 106 109 24867
12.44874954 -9.36600018 -0.30925000 161 172 178 25442
12.44824982 -9.36575031 -0.30825001 161 172 178 25053
12.44799995 -9.36549950 -0.30724999 161 172 178 25053
12.44775009 -9.36524963 -0.30625001 161 172 178 25150
12.44750023 -9.36524963 -0.30524999 161 172 178 25539
12.44674969 -9.36450005 -0.30425000 161 172 178 26357
12.44725037 -9.36499977 -0.30325001 161 172 178 27007
12.44700050 -9.36474991 -0.30225000 204 214 223 27232
12.44725037 -9.36499977 -0.30125001 204 214 223 26571
12.44524956 -9.36349964 -0.30024999 204 214 223 25835
12.44624996 -9.36400032 -0.29925001 204 214 223 26042
12.44549942 -9.36349964 -0.29824999 204 214 223 25535
12.44575024 -9.36375046 -0.29725000 204 214 223 25635
12.44449997 -9.36275005 -0.29624999 218 224 236 26564
12.44274998 -9.36149979 -0.29499999 218 224 236 26450
12.44449997 -9.36275005 -0.29400000 218 224 236 26782
12.44350052 -9.36225033 -0.29300001 218 224 236 26242
12.44299984 -9.36174965 -0.29200000 218 224 236 25528
12.44250011 -9.36149979 -0.29100001 218 224 236 25828
12.44299984 -9.36174965 -0.28999999 218 224 236 27450
12.44124985 -9.36025047 -0.28900000 224 227 242 28153
12.44225025 -9.36124992 -0.28799999 224 227 242 28278
12.44299984 -9.36174965 -0.28700000 224 227 242 27335
12.44050026 -9.35999966 -0.28600001 224 227 242 27442
12.44025040 -9.35974979 -0.28500000 224 227 242 27103
12.44075012 -9.35999966 -0.28400001 224 227 242 26882
12.43949986 -9.35900021 -0.28299999 228 227 245 26985
12.43949986 -9.35900021 -0.28200001 228 227 245 26767
12.43799973 -9.35799980 -0.28099999 228 227 245 26550
12.43824959 -9.35824966 -0.28000000 228 227 245 26550
12.43750000 -9.35774994 -0.27900001 228 227 245 26439
12.43750000 -9.35774994 -0.27800000 228 227 245 26657
12.43675041 -9.35700035 -0.27700001 228 227 245 26764
12.43750000 -9.35774994 -0.27599999 225 221 244 27207
12.43675041 -9.35700035 -0.27500001 225 221 244 27667
12.43700027 -9.35700035 -0.27399999 225 221 244 26546
12.43650055 -9.35700035 -0.27300000 225 221 244 26017
12.43725014 -9.35725021 -0.27200001 225 221 244 24375
12.43575001 -9.35624981 -0.27100000 225 221 244 20553
12.43575001 -9.35624981 -0.27000001 199 190 217 13889
12.43650055 -9.35675049 -0.26899999 199 190 217 8042
12.43400002 -9.35499954 -0.26774999 199 190 217 5053
12.43375015 -9.35474968 -0.26675001 199 190 217 3060
12.43575001 -9.35624981 -0.26600000 199 190 217 2060
12.43225002 -9.35375023 -0.26475000 199 190 217 1521
12.43124962 -9.35274982 -0.26374999 199 190 217 1421
12.43375015 -9.35474968 -0.26175001 149 139 166 1285
12.42975044 -9.35175037 -0.25975001 149 139 166 1389
12.42924976 -9.35124969 -0.25775000 149 139 166 2267
12.43124962 -9.35274982 -0.25674999 111 101 128 3421
12.42975044 -9.35175037 -0.25575000 111 101 128 5503
12.43000031 -9.35175037 -0.25475001 111 101 128 8642
12.43050003 -9.35225010 -0.25375000 111 101 128 12900
12.43074989 -9.35249996 -0.25275001 111 101 128 17610
12.42975044 -9.35175037 -0.25174999 111 101 128 20867
12.42799950 -9.35050011 -0.25075001 111 101 128 23314
12.42774963 -9.35025024 -0.24975000 146 138 162 24814
12.42899990 -9.35124969 -0.24875000 146 138 162 26000
12.42724991 -9.34975052 -0.24775000 146 138 162 26739
12.42799950 -9.35025024 -0.24675000 146 138 162 26957
12.42749977 -9.35000038 -0.24575000 146 138 162 26846
12.42650032 -9.34924984 -0.24474999 146 138 162 27407
12.42574978 -9.34850025 -0.24375001 146 138 162 27403
12.42724991 -9.34975052 -0.24275000 204 199 221 27642
12.42574978 -9.34875011 -0.24175000 204 199 221 27289
12.42574978 -9.34875011 -0.24075000 204 199 221 26517
12.42500019 -9.34825039 -0.23975000 204 199 221 26303
12.42325020 -9.34675026 -0.23875000 204 199 221 26510
12.42424965 -9.34749985 -0.23774999 204 199 221 27175
12.42350006 -9.34700012 -0.23675001 236 233 252 27285
12.42475033 -9.34774971 -0.23575000 236 233 252 27400
12.42300034 -9.34650040 -0.23475000 236 233 252 26835
12.42199993 -9.34574986 -0.23375000 236 233 252 26400
12.42199993 -9.34574986 -0.23275000 236 233 252 25778
12.42224979 -9.34599972 -0.23175000 236 233 252 25478
12.42175007 -9.34549999 -0.23074999 238 237 251 25182
12.42074966 -9.34475040 -0.22975001 238 237 251 25674
12.42099953 -9.34525013 -0.22875001 238 237 251 25574
12.41975021 -9.34424973 -0.22775000 238 237 251 26935
12.42074966 -9.34475040 -0.22675000 238 237 251 26939
12.42049980 -9.34475040 -0.22575000 238 237 251 27625
12.42024994 -9.34449959 -0.22450000 238 237 251 27507
12.41849995 -9.34325027 -0.22350000 229 231 243 27385
12.41925049 -9.34375000 -0.22250000 229 231 243 27621
12.41699982 -9.34224987 -0.22149999 229 231 243 27967
12.41724968 -9.34224987 -0.22050001 229 231 243 28210
12.41650009 -9.34175014 -0.21950001 229 231 243 27042
12.41774940 -9.34249973 -0.21850000 229 231 243 26932
12.41625023 -9.34150028 -0.21750000 231 238 244 27378
12.41600037 -9.34124947 -0.21650000 231 238 244 27039
12.41650009 -9.34175014 -0.21550000 231 238 244 26603
12.41674995 -9.34175014 -0.21450000 231 238 244 27378
12.41524982 -9.34074974 -0.21349999 231 238 244 27960
12.41575050 -9.34099960 -0.21250001 231 238 244 27964
12.41499996 -9.34049988 -0.21150000 231 238 244 25164
12.41424942 -9.34000015 -0.21050000 228 238 239 20707
12.41399956 -9.33975029 -0.20950000 228 238 239 12825
12.41349983 -9.33950043 -0.20850000 228 238 239 6500
12.41250038 -9.33874989 -0.20750000 228 238 239 3128
12.44925022 -9.36775017 -0.31500000 92 106 109 3671
12.44974995 -9.36800003 -0.31400001 92 106 109 8457
12.45024967 -9.36849976 -0.31299999 92 106 109 15485
12.45050049 -9.36874962 -0.31174999 92 106 109 21453
12.44950008 -9.36800003 -0.31075001 92 106 109 23960
12.44950008 -9.36800003 -0.30974999 92 106 109 25546
12.44925022 -9.36775017 -0.30875000 161 172 178 25946
12.44849968 -9.36699963 -0.30774999 161 172 178 26792
12.44849968 -9.36699963 -0.30675000 161 172 178 26685
12.44649982 -9.36575031 -0.30575001 161 172 178 26678
12.44600010 -9.36524963 -0.30475000 161 172 178 25439
12.44674969 -9.36575031 -0.30375001 161 172 178 26253
12.44775009 -9.36674976 -0.30274999 204 214 223 26046
12.44649982 -9.36549950 -0.30175000 204 214 223 25539
12.44600010 -9.36524963 -0.30074999 204 214 223 25339
12.44499969 -9.36450005 -0.29975000 204 214 223 25635
12.44600010 -9.36524963 -0.29875001 204 214 223 25439
12.44449997 -9.36400032 -0.29775000 204 214 223 25046
12.44499969 -9.36450005 -0.29675001 204 214 223 25335
12.44324970 -9.36324978 -0.29574999 218 224 236 25332
12.44250011 -9.36275005 -0.29475001 218 224 236 25428
12.44400024 -9.36375046 -0.29374999 218 224 236 24950
12.44199944 -9.36225033 -0.29275000 218 224 236 25428
12.44299984 -9.36299992 -0.29175001 218 224 236 25632
12.44225025 -9.36250019 -0.29075000 218 224 236 27567
12.44324970 -9.36299992 -0.28975001 224 227 242 28160
12.44274998 -9.36299992 -0.28874999 224 227 242 28282
12.44299984 -9.36299992 -0.28775001 224 227 242 26889
12.44174957 -9.36199951 -0.28674999 224 227 242 26450
12.43924999 -9.36025047 -0.28549999 224 227 242 25821
12.43974972 -9.36050034 -0.28475001 224 227 242 26339
12.43924999 -9.35999966 -0.28349999 224 227 242 26660
12.43900013 -9.35999966 -0.28250000 228 227 245 25621
12.43924999 -9.35999966 -0.28150001 228 227 245 26235
12.43924999 -9.35999966 -0.28049999 228 227 245 26128
12.43900013 -9.35999966 -0.27950001 228 227 245 26553
12.43849945 -9.35949993 -0.27849999 228 227 245 26339
12.43750000 -9.35875034 -0.27750000 228 227 245 26657
12.43799973 -9.35925007 -0.27649999 228 227 245 27553
12.43750000 -9.35875034 -0.27550000 225 221 244 28021
12.43650055 -9.35799980 -0.27450001 225 221 244 26653
12.43650055 -9.35799980 -0.27350000 225 221 244 24835
12.43650055 -9.35799980 -0.27250001 225 221 244 21500
12.43650055 -9.35799980 -0.27149999 225 221 244 16771
12.43624973 -9.35774994 -0.27050000 225 221 244 10575
12.43499947 -9.35675049 -0.26949999 199 190 217 6017
12.43225002 -9.35499954 -0.26850000 199 190 217 3767
12.43624973 -9.35774994 -0.26750001 199 190 217 2378
12.43449974 -9.35649967 -0.26650000 199 190 217 1639
12.43149948 -9.35449982 -0.26550001 199 190 217 1392
12.42899990 -9.35249996 -0.25950000 149 139 166 1228
12.42924976 -9.35249996 -0.25850001 149 139 166 1553
12.43175030 -9.35449982 -0.25749999 149 139 166 1967
12.42799950 -9.35175037 -0.25650001 111 101 128 2835
12.42850018 -9.35200024 -0.25549999 111 101 128 4442
12.42799950 -9.35175037 -0.25450000 111 101 128 7099
12.42774963 -9.35149956 -0.25325000 111 101 128 11010
12.42774963 -9.35149956 -0.25224999 111 101 128 15521
12.42799950 -9.35149956 -0.25125000 111 101 128 19325
12.42799950 -9.35175037 -0.25049999 111 101 128 22132
12.42700005 -9.35099983 -0.24924999 146 138 162 24260
12.42724991 -9.35099983 -0.24824999 146 138 162 26203
12.42625046 -9.35025024 -0.24725001 146 138 162 26521
12.42650032 -9.35050011 -0.24625000 146 138 162 26521
12.42574978 -9.35000038 -0.24525000 146 138 162 27178
12.42549992 -9.34975052 -0.24425000 146 138 162 28728
12.42625046 -9.35050011 -0.24325000 204 199 221 27875
12.42525005 -9.34975052 -0.24225000 204 199 221 27064
12.42600060 -9.35025024 -0.24124999 204 199 221 26735
12.42325020 -9.34799957 -0.24025001 204 199 221 26089
12.42224979 -9.34724998 -0.23925000 204 199 221 25985
12.42300034 -9.34799957 -0.23825000 204 199 221 26728
12.42374992 -9.34850025 -0.23725000 204 199 221 27175
12.42399979 -9.34850025 -0.23625000 236 233 252 27285
12.42249966 -9.34749985 -0.23525000 236 233 252 27285
12.42224979 -9.34749985 -0.23424999 236 233 252 25778
12.42150021 -9.34675026 -0.23325001 236 233 252 25182
12.42150021 -9.34675026 -0.23225001 236 233 252 25182
12.42199993 -9.34700012 -0.23125000 236 233 252 25478
12.42224979 -9.34724998 -0.23025000 238 237 251 26728
12.42175007 -9.34700012 -0.22925000 238 237 251 27510
12.42099953 -9.34625053 -0.22825000 238 237 251 26939
12.41975021 -9.34549999 -0.22724999 238 237 251 26503
12.41849995 -9.34449959 -0.22624999 238 237 251 26717
12.41925049 -9.34500027 -0.22525001 238 237 251 27050
12.41825008 -9.34424973 -0.22425000 238 237 251 27732
12.41774940 -9.34399986 -0.22325000 229 231 243 27046
12.41724968 -9.34375000 -0.22225000 229 231 243 27157
12.41724968 -9.34350014 -0.22125000 229 231 243 27500
12.41800022 -9.34399986 -0.22025000 229 231 243 27853
12.41650009 -9.34300041 -0.21900000 229 231 243 27500
12.41575050 -9.34249973 -0.21825001 229 231 243 27378
12.41549969 -9.34224987 -0.21725000 231 238 244 27614
12.41499996 -9.34200001 -0.21625000 231 238 244 27964
12.41424942 -9.34124947 -0.21525000 231 238 244 27610
12.41575050 -9.34249973 -0.21425000 231 238 244 28957
12.41524982 -9.34200001 -0.21325000 231 238 244 28703
12.41349983 -9.34074974 -0.21224999 231 238 244 27260
12.41499996 -9.34200001 -0.21125001 231 238 244 23882
12.41250038 -9.34000015 -0.21025001 228 238 239 17539
12.41199970 -9.33950043 -0.20925000 228 238 239 10092
12.41225052 -9.33975029 -0.20825000 228 238 239 4900
12.41250038 -9.34000015 -0.20725000 228 238 239 2507
12.44799995 -9.36800003 -0.31424999 92 106 109 5792
12.44950008 -9.36899948 -0.31325001 92 106 109 12064
12.45050049 -9.36975002 -0.31250000 92 106 109 17892
12.44974995 -9.36925030 -0.31125000 92 106 109 22328
12.44874954 -9.36849976 -0.31025001 92 106 109 24135
12.44725037 -9.36725044 -0.30925000 161 172 178 25942
12.44775009 -9.36775017 -0.30825001 161 172 178 27814
12.44775009 -9.36775017 -0.30724999 161 172 178 27935
12.44674969 -9.36699963 -0.30625001 161 172 178 27007
12.44624996 -9.36649990 -0.30524999 161 172 178 26046
12.44624996 -9.36674976 -0.30425000 161 172 178 25339
12.44400024 -9.36499977 -0.30325001 161 172 178 25335
12.44449997 -9.36524963 -0.30225000 204 214 223 25435
12.44624996 -9.36674976 -0.30125001 204 214 223 25639
12.44425011 -9.36499977 -0.30024999 204 214 223 25435
12.44350052 -9.36450005 -0.29925001 204 214 223 24950
12.44524956 -9.36600018 -0.29824999 204 214 223 24767
12.44474983 -9.36549950 -0.29725000 204 214 223 24953
12.44449997 -9.36524963 -0.29624999 218 224 236 26250
12.44324970 -9.36450005 -0.29499999 218 224 236 26350
12.44324970 -9.36425018 -0.29400000 218 224 236 25732
12.44149971 -9.36299992 -0.29300001 218 224 236 25232
12.44124985 -9.36275005 -0.29200000 218 224 236 25828
12.44199944 -9.36324978 -0.29100001 218 224 236 26242
12.44075012 -9.36250019 -0.28999999 218 224 236 27446
12.44225025 -9.36349964 -0.28900000 224 227 242 27450
12.44174957 -9.36324978 -0.28799999 224 227 242 26778
12.44199944 -9.36349964 -0.28700000 224 227 242 26671
12.44099998 -9.36275005 -0.28600001 224 227 242 26775
12.43900013 -9.36100006 -0.28500000 224 227 242 26339
12.43849945 -9.36075020 -0.28400001 224 227 242 26132
12.43900013 -9.36100006 -0.28299999 228 227 245 25821
12.43900013 -9.36124992 -0.28200001 228 227 245 25521
12.43774986 -9.36025047 -0.28099999 228 227 245 26024
12.43924999 -9.36124992 -0.28000000 228 227 245 25721
12.43750000 -9.35999966 -0.27900001 228 227 245 26021
12.43624973 -9.35925007 -0.27800000 228 227 245 26332
12.43824959 -9.36050034 -0.27700001 228 227 245 26878
12.43700027 -9.35974979 -0.27599999 225 221 244 26982
12.43675041 -9.35949993 -0.27500001 225 221 244 25917
12.43424988 -9.35750008 -0.27399999 225 221 244 24100
12.43474960 -9.35799980 -0.27300000 225 221 244 20814
12.43375015 -9.35725021 -0.27200001 225 221 244 14564
12.43700027 -9.35949993 -0.27100000 225 221 244 9196
12.43350029 -9.35700035 -0.26975000 199 190 217 5164
12.43350029 -9.35700035 -0.26899999 199 190 217 3503
12.43200016 -9.35599995 -0.26774999 199 190 217 2146
12.43175030 -9.35575008 -0.26475000 199 190 217 1271
12.43050003 -9.35474968 -0.26374999 199 190 217 1214
12.43099976 -9.35525036 -0.26175001 149 139 166 1167
12.43200016 -9.35575008 -0.25975001 149 139 166 1085
12.42774963 -9.35249996 -0.25775000 149 139 166 1414
12.42700005 -9.35225010 -0.25575000 111 101 128 2453
12.42749977 -9.35249996 -0.25475001 111 101 128 3732
12.42650032 -9.35175037 -0.25375000 111 101 128 6039
12.42825031 -9.35299969 -0.25275001 111 101 128 9278
12.42924976 -9.35375023 -0.25174999 111 101 128 14182
12.42899990 -9.35350037 -0.25075001 111 101 128 18003
12.42724991 -9.35225010 -0.24975000 146 138 162 21621
12.42600060 -9.35124969 -0.24875000 146 138 162 24082
12.42675018 -9.35175037 -0.24775000 146 138 162 25996
12.42625046 -9.35149956 -0.24675000 146 138 162 26414
12.42625046 -9.35149956 -0.24575000 146 138 162 27996
12.42525005 -9.35074997 -0.24474999 146 138 162 27753
12.42475033 -9.35050011 -0.24375001 146 138 162 27992
12.42475033 -9.35025024 -0.24275000 204 199 221 27064
12.42475033 -9.35025024 -0.24175000 204 199 221 26517
12.42350006 -9.34924984 -0.24075000 204 199 221 26300
12.42350006 -9.34924984 -0.23975000 204 199 221 26092
12.42350006 -9.34924984 -0.23875000 204 199 221 26514
12.42275047 -9.34875011 -0.23774999 204 199 221 26946
12.42325020 -9.34924984 -0.23675001 236 233 252 27635
12.42249966 -9.34850025 -0.23575000 236 233 252 27285
12.42224979 -9.34850025 -0.23475000 236 233 252 26403
12.42049980 -9.34700012 -0.23375000 236 233 252 24989
12.42049980 -9.34724998 -0.23275000 236 233 252 25182
12.42000008 -9.34675026 -0.23175000 236 233 252 26614
12.41950035 -9.34650040 -0.23074999 238 237 251 27625
12.42175007 -9.34825039 -0.22975001 238 237 251 27632
12.42099953 -9.34749985 -0.22875001 238 237 251 26942
12.41925049 -9.34625053 -0.22775000 238 237 251 26610
12.42024994 -9.34700012 -0.22675000 238 237 251 27510
12.41874981 -9.34599972 -0.22550000 238 237 251 27857
12.41800022 -9.34525013 -0.22450000 238 237 251 27046
12.41774940 -9.34500027 -0.22350000 229 231 243 26825
12.41699982 -9.34449959 -0.22250000 229 231 243 26607
12.41575050 -9.34350014 -0.22149999 229 231 243 27267
12.41625023 -9.34399986 -0.22075000 229 231 243 28582
12.41674995 -9.34424973 -0.21975000 229 231 243 28582
12.41524982 -9.34325027 -0.21850000 229 231 243 28207
12.41600037 -9.34375000 -0.21750000 231 238 244 28957
12.41650009 -9.34424973 -0.21650000 231 238 244 28582
12.41424942 -9.34249973 -0.21550000 231 238 244 28699
12.41499996 -9.34300041 -0.21450000 231 238 244 29214
12.41349983 -9.34200001 -0.21349999 231 238 244 28825
12.41250038 -9.34124947 -0.21250001 231 238 244 27842
12.41424942 -9.34249973 -0.21150000 231 238 244 24414
12.41324997 -9.34175014 -0.21050000 228 238 239 18692
12.41324997 -9.34175014 -0.20950000 228 238 239 10864
12.41374969 -9.34224987 -0.20750000 228 238 239 2550
12.41024971 -9.33950043 -0.20649999 228 238 239 1053
12.44950008 -9.37024975 -0.31400001 92 106 109 6185
12.44974995 -9.37049961 -0.31299999 92 106 109 12135
12.44950008 -9.37049961 -0.31200001 92 106 109 18339
12.44925022 -9.36999989 -0.31099999 92 106 109 22253
12.44899940 -9.36999989 -0.31000000 92 106 109 24314
12.44775009 -9.36899948 -0.30875000 161 172 178 26260
12.44649982 -9.36824989 -0.30774999 161 172 178 27810
12.44750023 -9.36899948 -0.30675000 161 172 178 27125
12.44674969 -9.36824989 -0.30575001 161 172 178 27582
12.44549942 -9.36750031 -0.30475000 161 172 178 26464
12.44575024 -9.36750031 -0.30375001 161 172 178 26682
12.44524956 -9.36725044 -0.30274999 204 214 223 26896
12.44524956 -9.36725044 -0.30175000 204 214 223 26150
12.44474983 -9.36674976 -0.30074999 204 214 223 26571
12.44499969 -9.36699963 -0.29975000 204 214 223 25939
12.44274998 -9.36524963 -0.29875001 204 214 223 25235
12.44375038 -9.36600018 -0.29775000 204 214 223 25835
12.44400024 -9.36625004 -0.29675001 204 214 223 27342
12.44350052 -9.36600018 -0.29574999 218 224 236 26785
12.44274998 -9.36524963 -0.29475001 218 224 236 26246
12.44099998 -9.36400032 -0.29374999 218 224 236 25828
12.44149971 -9.36450005 -0.29275000 218 224 236 25832
12.44199944 -9.36474991 -0.29175001 218 224 236 25932
12.43949986 -9.36275005 -0.29049999 218 224 236 26135
12.44099998 -9.36400032 -0.28975001 224 227 242 26242
12.43875027 -9.36225033 -0.28850001 224 227 242 26446
12.43875027 -9.36225033 -0.28749999 224 227 242 26342
12.43875027 -9.36225033 -0.28650001 224 227 242 26235
12.43875027 -9.36225033 -0.28549999 224 227 242 26132
12.43725014 -9.36100006 -0.28450000 224 227 242 26024
12.43849945 -9.36225033 -0.28349999 224 227 242 26339
12.43725014 -9.36124992 -0.28250000 228 227 245 26550
12.43750000 -9.36124992 -0.28150001 228 227 245 26767
12.43750000 -9.36124992 -0.28049999 228 227 245 26442
12.43750000 -9.36124992 -0.27950001 228 227 245 26128
12.43575001 -9.35999966 -0.27849999 228 227 245 26657
12.43700027 -9.36100006 -0.27750000 228 227 245 26767
12.43550014 -9.35974979 -0.27649999 228 227 245 26021
12.43624973 -9.36050034 -0.27550000 225 221 244 24560
12.43499947 -9.35949993 -0.27450001 225 221 244 22685
12.43449974 -9.35900021 -0.27350000 225 221 244 17207
12.43474960 -9.35925007 -0.27250001 225 221 244 11439
12.43375015 -9.35849953 -0.27149999 225 221 244 6753
12.43350029 -9.35824966 -0.27050000 225 221 244 4075
12.43225002 -9.35725021 -0.26850000 199 190 217 1725
12.43200016 -9.35725021 -0.26750001 199 190 217 1382
12.43424988 -9.35875034 -0.26650000 199 190 217 1300
12.43274975 -9.35774994 -0.26550001 199 190 217 1185
12.43124962 -9.35649967 -0.26350001 199 190 217 1203
12.43249989 -9.35750008 -0.26150000 149 139 166 1110
12.42950058 -9.35525036 -0.25950000 149 139 166 1114
12.42774963 -9.35400009 -0.25650001 111 101 128 1653
12.42724991 -9.35350037 -0.25549999 111 101 128 2135
12.42549992 -9.35225010 -0.25350001 111 101 128 4614
12.42700005 -9.35350037 -0.25250000 111 101 128 7707
12.42799950 -9.35400009 -0.25150001 111 101 128 11392
12.42650032 -9.35299969 -0.25025001 111 101 128 16625
12.42625046 -9.35274982 -0.24924999 146 138 162 20864
12.42574978 -9.35249996 -0.24824999 146 138 162 24353
12.42549992 -9.35225010 -0.24725001 146 138 162 25003
