//X Y Z R G B Intensity
12.45499992 -9.30175018 -0.23899999 93 85 108 757
12.45475006 -9.30150032 -0.23800001 93 85 108 775
12.45724964 -9.30350018 -0.23700000 93 85 108 825
12.45275021 -9.30000019 -0.23300000 97 94 111 639
12.47500038 -9.31799984 -0.29200000 135 140 146 807
12.47399998 -9.31700039 -0.28600001 135 140 146 846
12.47325039 -9.31649971 -0.28299999 113 113 123 828
12.46899986 -9.31324959 -0.28174999 113 113 123 728
12.47074986 -9.31474972 -0.27675000 92 90 104 721
12.46800041 -9.31274986 -0.27575001 92 90 104 710
12.46800041 -9.31274986 -0.27474999 92 90 104 750
12.46399975 -9.30974960 -0.26650000 90 86 103 700
12.46749973 -9.31225014 -0.26574999 93 85 106 732
12.46300030 -9.30900002 -0.26449999 93 85 106 764
12.46300030 -9.30900002 -0.26350001 93 85 106 767
12.46574974 -9.31099987 -0.26175001 93 85 106 853
12.46249962 -9.30850029 -0.25850001 90 80 104 842
12.46125031 -9.30774975 -0.25650001 90 80 104 775
12.46100044 -9.30749989 -0.25549999 90 80 104 775
12.46100044 -9.30749989 -0.25350001 90 80 104 735
12.46074963 -9.30725002 -0.25150001 97 84 110 782
12.45950031 -9.30624962 -0.25049999 97 84 110 796
12.46125031 -9.30749989 -0.24850000 97 84 110 864
12.45899963 -9.30599976 -0.24750000 97 84 110 832
12.45874977 -9.30574989 -0.24250001 94 84 109 850
12.45475006 -9.30274963 -0.23950000 93 85 108 807
12.45324993 -9.30150032 -0.23850000 93 85 108 764
12.45600033 -9.30375004 -0.23549999 93 85 108 832
12.45549965 -9.30325031 -0.23450001 93 85 108 728
12.45650005 -9.30399990 -0.23350000 93 85 108 757
12.47500038 -9.31925011 -0.29550001 124 132 134 721
12.47399998 -9.31849957 -0.29150000 135 140 146 889
12.47224998 -9.31700039 -0.29025000 135 140 146 782
12.47325039 -9.31799984 -0.28950000 135 140 146 785
12.47074986 -9.31599998 -0.28650001 135 140 146 771
12.47150040 -9.31649971 -0.28549999 113 113 123 767
12.47175026 -9.31674957 -0.28450000 113 113 123 742
12.46975040 -9.31525040 -0.27925000 113 113 123 764
12.46700001 -9.31324959 -0.27724999 92 90 104 753
12.46800041 -9.31400013 -0.27625000 92 90 104 771
12.46650028 -9.31299973 -0.27524999 92 90 104 746
12.46599960 -9.31250000 -0.27125001 90 86 103 800
12.46599960 -9.31250000 -0.26925001 90 86 103 892
12.46500015 -9.31175041 -0.26824999 90 86 103 821
12.46525002 -9.31200027 -0.26625001 90 86 103 707
12.46199989 -9.30949974 -0.26525000 93 85 106 753
12.46199989 -9.30949974 -0.26124999 93 85 106 850
12.46125031 -9.30875015 -0.25900000 90 80 104 832
12.46224976 -9.30974960 -0.25799999 90 80 104 842
12.46000004 -9.30799961 -0.25600001 90 80 104 746
12.45899963 -9.30725002 -0.25500000 90 80 104 775
12.45874977 -9.30700016 -0.25299999 90 80 104 885
12.46000004 -9.30799961 -0.25200000 97 84 110 807
12.45924950 -9.30749989 -0.25000000 97 84 110 803
12.45775032 -9.30624962 -0.24699999 97 84 110 850
12.45549965 -9.30449963 -0.24500000 94 84 109 864
12.45899963 -9.30725002 -0.24400000 94 84 109 821
12.45775032 -9.30624962 -0.24300000 94 84 109 864
12.45574951 -9.30475044 -0.23999999 94 84 109 807
12.45574951 -9.30475044 -0.23899999 93 85 108 850
12.45549965 -9.30449963 -0.23800001 93 85 108 814
12.45125008 -9.30125046 -0.23400000 93 85 108 778
12.45174980 -9.30175018 -0.23300000 97 94 111 792
12.45549965 -9.30449963 -0.23199999 97 94 111 864
12.47200012 -9.31799984 -0.29499999 153 160 166 1064
12.47299957 -9.31875038 -0.29200000 158 162 173 925
12.47399998 -9.31974983 -0.29100001 158 162 173 871
12.47350025 -9.31925011 -0.28999999 158 162 173 839
12.47150040 -9.31774998 -0.28900000 158 162 173 800
12.47150040 -9.31774998 -0.28375000 115 114 130 760
12.46774960 -9.31499958 -0.28275001 115 114 130 764
12.46700001 -9.31424999 -0.27974999 115 114 130 778
12.46975040 -9.31649971 -0.27774999 82 79 98 717
12.46924973 -9.31624985 -0.27675000 82 79 98 753
12.46975040 -9.31649971 -0.27575001 82 79 98 764
12.46599960 -9.31350040 -0.27474999 82 79 98 760
12.46875000 -9.31575012 -0.27375001 82 79 98 764
12.46599960 -9.31375027 -0.27074999 84 76 99 807
12.46424961 -9.31250000 -0.26875001 84 76 99 789
12.46700001 -9.31449986 -0.26774999 84 76 99 746
12.46175003 -9.31050014 -0.26449999 93 83 108 742
12.46199989 -9.31075001 -0.26350001 93 83 108 746
12.46074963 -9.30974960 -0.25850001 96 86 113 810
12.46175003 -9.31050014 -0.25650001 96 86 113 807
12.46224976 -9.31099987 -0.25549999 96 86 113 742
12.46024990 -9.30949974 -0.25350001 96 86 113 796
12.45924950 -9.30850029 -0.24850000 96 83 111 871
12.45699978 -9.30700016 -0.24650000 96 83 111 803
12.45750046 -9.30725002 -0.24150001 101 91 118 850
12.45374966 -9.30449963 -0.24050000 101 91 118 810
12.45174980 -9.30299950 -0.23750000 93 85 109 878
12.45300007 -9.30399990 -0.23649999 93 85 109 828
12.45224953 -9.30325031 -0.23250000 92 89 108 867
12.44950008 -9.30125046 -0.22750001 92 89 108 532
12.47449970 -9.32149982 -0.29850000 153 160 166 2228
12.47375011 -9.32075024 -0.29650000 153 160 166 1814
12.47074986 -9.31849957 -0.28850001 158 162 173 842
12.47274971 -9.31999969 -0.28749999 158 162 173 821
12.46875000 -9.31700039 -0.28650001 158 162 173 825
12.47074986 -9.31849957 -0.28549999 115 114 130 792
12.46924973 -9.31750011 -0.28450000 115 114 130 732
12.46800041 -9.31624985 -0.28250000 115 114 130 803
12.46475029 -9.31400013 -0.27625000 82 79 98 742
12.46599960 -9.31499958 -0.27425000 82 79 98 789
12.46249962 -9.31225014 -0.26925001 84 76 99 814
12.46224976 -9.31200027 -0.26625001 84 76 99 710
12.46125031 -9.31149960 -0.26124999 93 83 108 814
12.45975018 -9.31025028 -0.25900000 96 86 113 750
12.46100044 -9.31124973 -0.25725001 96 86 113 735
12.46074963 -9.31099987 -0.25624999 96 86 113 792
12.45899963 -9.30974960 -0.25200000 96 83 111 832
12.45800018 -9.30900002 -0.25099999 96 83 111 796
12.45425034 -9.30624962 -0.24500000 101 91 118 785
12.45324993 -9.30550003 -0.24300000 101 91 118 835
12.45650005 -9.30774975 -0.24200000 101 91 118 789
12.45275021 -9.30500031 -0.23600000 93 85 109 789
12.45499992 -9.30675030 -0.23500000 93 85 109 825
12.45174980 -9.30424976 -0.23400000 93 85 109 857
12.45149994 -9.30399990 -0.23199999 92 89 108 946
12.44750023 -9.30099964 -0.22600000 121 125 136 632
12.44999981 -9.30299950 -0.22499999 121 125 136 635
12.47249985 -9.32100010 -0.30000001 110 122 122 3296
12.47299957 -9.32124996 -0.29899999 110 122 122 5121
12.47325039 -9.32149982 -0.29800001 153 160 166 5257
12.47375011 -9.32200050 -0.29699999 153 160 166 3982
12.47224998 -9.32075024 -0.29600000 153 160 166 2675
12.47175026 -9.32024956 -0.29400000 153 160 166 1428
12.47074986 -9.31974983 -0.29200000 158 162 173 1017
12.47125053 -9.31999969 -0.28900000 158 162 173 978
12.46899986 -9.31849957 -0.28775001 158 162 173 871
12.47099972 -9.31999969 -0.28600001 158 162 173 864
12.46724987 -9.31700039 -0.28475001 115 114 130 807
12.46650028 -9.31649971 -0.28275001 115 114 130 746
12.46675014 -9.31674957 -0.28075001 115 114 130 750
12.46624947 -9.31624985 -0.27474999 82 79 98 771
12.46650028 -9.31649971 -0.27274999 82 79 98 778
12.46500015 -9.31550026 -0.26675001 84 76 99 771
12.46249962 -9.31350040 -0.26475000 93 83 108 853
12.45950031 -9.31124973 -0.26249999 93 83 108 821
12.46224976 -9.31324959 -0.26150000 93 83 108 803
12.46125031 -9.31250000 -0.26050001 93 83 108 789
12.45975018 -9.31149960 -0.25749999 96 86 113 735
12.45650005 -9.30924988 -0.25450000 96 86 113 803
12.45674992 -9.30924988 -0.24450000 101 91 118 789
12.45674992 -9.30924988 -0.24250001 101 91 118 796
12.45600033 -9.30875015 -0.24150001 101 91 118 850
12.45275021 -9.30624962 -0.24050000 101 91 118 814
12.45125008 -9.30525017 -0.23950000 93 85 109 871
12.45549965 -9.30825043 -0.23850000 93 85 109 867
12.44999981 -9.30424976 -0.23350000 93 85 109 925
12.45324993 -9.30650043 -0.23250000 92 89 108 953
12.45075035 -9.30475044 -0.23150000 92 89 108 989
12.44824982 -9.30274963 -0.22750001 92 89 108 867
12.44824982 -9.30274963 -0.22550000 121 125 136 1232
12.44600010 -9.30125046 -0.22350000 121 125 136 1417
12.47274971 -9.32250023 -0.30149999 110 122 122 3242
12.47375011 -9.32324982 -0.30050001 110 122 122 7521
12.47224998 -9.32225037 -0.29949999 110 122 122 11817
12.47224998 -9.32225037 -0.29850000 153 160 166 12421
12.47200012 -9.32200050 -0.29750001 153 160 166 9760
12.47074986 -9.32100010 -0.29650000 153 160 166 6532
12.47025013 -9.32075024 -0.29550001 153 160 166 4089
12.47025013 -9.32075024 -0.29449999 153 160 166 2521
12.47274971 -9.32250023 -0.29350001 153 160 166 1792
12.47025013 -9.32050037 -0.29049999 158 162 173 1021
12.46825027 -9.31900024 -0.28950000 158 162 173 960
12.47099972 -9.32124996 -0.28850001 158 162 173 935
12.46975040 -9.32024956 -0.28749999 158 162 173 907
12.47099972 -9.32124996 -0.28650001 158 162 173 857
12.46749973 -9.31875038 -0.28250000 115 114 130 778
12.46650028 -9.31799984 -0.27950001 115 114 130 778
12.46624947 -9.31774998 -0.27750000 82 79 98 771
12.46800041 -9.31900024 -0.27649999 82 79 98 785
12.46249962 -9.31474972 -0.27225000 82 79 98 739
12.46500015 -9.31674957 -0.26925001 84 76 99 710
12.46325016 -9.31525040 -0.26725000 84 76 99 682
12.45899963 -9.31225014 -0.26324999 93 83 108 821
12.46049976 -9.31350040 -0.26025000 93 83 108 764
12.45849991 -9.31200027 -0.25924999 93 83 108 782
12.45950031 -9.31250000 -0.25725001 96 86 113 771
12.46000004 -9.31299973 -0.25624999 96 86 113 742
12.45475006 -9.30900002 -0.25099999 96 83 111 810
12.45475006 -9.30900002 -0.24900000 96 83 111 810
12.45524979 -9.30949974 -0.24699999 96 83 111 796
12.45524979 -9.30924988 -0.24600001 101 91 118 817
12.45224953 -9.30725002 -0.24400000 101 91 118 817
12.45224953 -9.30725002 -0.23999999 101 91 118 764
12.45125008 -9.30650043 -0.23899999 93 85 109 832
12.45349979 -9.30799961 -0.23700000 93 85 109 846
12.45450020 -9.30900002 -0.23600000 93 85 109 882
12.44999981 -9.30550003 -0.23400000 93 85 109 953
12.44824982 -9.30424976 -0.23199999 92 89 108 1067
12.45075035 -9.30599976 -0.22800000 92 89 108 1335
12.44874954 -9.30449963 -0.22700000 92 89 108 1921
12.44700050 -9.30325031 -0.22400001 121 125 136 5500
12.44499969 -9.30175018 -0.22300000 121 125 136 4000
12.47274971 -9.32374954 -0.30100000 110 122 122 7600
12.47224998 -9.32324982 -0.30000001 110 122 122 13278
12.47224998 -9.32324982 -0.29899999 110 122 122 16039
12.47224998 -9.32324982 -0.29800001 153 160 166 14642
12.47099972 -9.32250023 -0.29600000 153 160 166 7807
12.47000027 -9.32174969 -0.29499999 153 160 166 4982
12.47099972 -9.32225037 -0.29400000 153 160 166 2846
12.46899986 -9.32100010 -0.29100001 158 162 173 1185
12.47025013 -9.32174969 -0.28999999 158 162 173 1046
12.47099972 -9.32250023 -0.28700000 158 162 173 907
12.47000027 -9.32149982 -0.28500000 115 114 130 785
12.46924973 -9.32124996 -0.28400001 115 114 130 810
12.46574974 -9.31849957 -0.27875000 82 79 98 771
12.46450043 -9.31750011 -0.27774999 82 79 98 789
12.46274948 -9.31624985 -0.27474999 82 79 98 742
12.46675014 -9.31925011 -0.27399999 82 79 98 792
12.46549988 -9.31824970 -0.27274999 82 79 98 746
12.46150017 -9.31525040 -0.27074999 84 76 99 685
12.46175003 -9.31550026 -0.26875001 84 76 99 703
12.46424961 -9.31750011 -0.26774999 84 76 99 703
12.46049976 -9.31449986 -0.26675001 84 76 99 746
12.46350002 -9.31674957 -0.26574999 93 83 108 771
12.46350002 -9.31674957 -0.26475000 93 83 108 853
12.46049976 -9.31449986 -0.26374999 93 83 108 807
12.46150017 -9.31525040 -0.26275000 93 83 108 764
12.45699978 -9.31200027 -0.25650001 96 86 113 810
12.45574951 -9.31099987 -0.25549999 96 86 113 764
12.45674992 -9.31175041 -0.25475001 96 86 113 842
12.45600033 -9.31124973 -0.25250000 96 83 111 875
12.45724964 -9.31200027 -0.25049999 96 83 111 803
12.45750046 -9.31250000 -0.24775000 96 83 111 792
12.45499992 -9.31050014 -0.24675000 96 83 111 832
12.45374966 -9.30949974 -0.24474999 101 91 118 814
12.45199966 -9.30825043 -0.24349999 101 91 118 842
12.45199966 -9.30825043 -0.24250001 101 91 118 789
12.45100021 -9.30749989 -0.24150001 101 91 118 835
12.45125008 -9.30749989 -0.23475000 93 85 109 1025
12.45024967 -9.30700016 -0.23250000 92 89 108 1085
12.45100021 -9.30749989 -0.22950000 92 89 108 1239
12.44775009 -9.30500031 -0.22849999 92 89 108 1700
12.44674969 -9.30424976 -0.22750001 92 89 108 2850
12.44700050 -9.30449963 -0.22650000 92 89 108 5360
12.44600010 -9.30375004 -0.22450000 121 125 136 11317
12.44750023 -9.30475044 -0.22350000 121 125 136 9425
12.44449997 -9.30249977 -0.22250000 121 125 136 6367
12.44649982 -9.30399990 -0.22050001 121 125 136 1932
12.44550037 -9.30350018 -0.21950001 150 159 164 1000
12.47449970 -9.32625008 -0.30149999 110 122 122 11782
12.47200012 -9.32425022 -0.30050001 110 122 122 17828
12.47325039 -9.32550049 -0.29949999 110 122 122 19528
12.47175026 -9.32425022 -0.29850000 153 160 166 18903
12.47049999 -9.32324982 -0.29750001 153 160 166 17039
12.47099972 -9.32374954 -0.29650000 153 160 166 13303
12.47125053 -9.32374954 -0.29550001 153 160 166 9382
12.47025013 -9.32299995 -0.29449999 153 160 166 5839
12.47099972 -9.32349968 -0.29350001 153 160 166 3735
12.47000027 -9.32275009 -0.29249999 153 160 166 2332
12.47224998 -9.32450008 -0.29150000 158 162 173 1703
12.46624947 -9.31999969 -0.28450000 115 114 130 803
12.46599960 -9.31999969 -0.27849999 82 79 98 764
12.46724987 -9.32075024 -0.27649999 82 79 98 764
12.46325016 -9.31774998 -0.27325001 82 79 98 782
12.46424961 -9.31849957 -0.27149999 84 76 99 714
12.46350002 -9.31799984 -0.27050000 84 76 99 632
12.46249962 -9.31725025 -0.26949999 84 76 99 700
12.46374989 -9.31824970 -0.26625001 84 76 99 778
12.46125031 -9.31624985 -0.26525000 93 83 108 746
12.46300030 -9.31774998 -0.26425001 93 83 108 789
12.46175003 -9.31674957 -0.26324999 93 83 108 764
12.45849991 -9.31424999 -0.26124999 93 83 108 721
12.45924950 -9.31474972 -0.25924999 96 86 113 835
12.45574951 -9.31225014 -0.25725001 96 86 113 850
12.45899963 -9.31474972 -0.25424999 96 86 113 846
12.45724964 -9.31350040 -0.25325000 96 86 113 796
12.45650005 -9.31274986 -0.25224999 96 83 111 814
12.45800018 -9.31375027 -0.25125000 96 83 111 782
12.45250034 -9.30974960 -0.24800000 96 83 111 782
12.45524979 -9.31200027 -0.24699999 96 83 111 835
12.45574951 -9.31225014 -0.24500000 101 91 118 782
12.45549965 -9.31200027 -0.24400000 101 91 118 853
12.45199966 -9.30949974 -0.24200000 101 91 118 792
12.45050049 -9.30825043 -0.24100000 101 91 118 792
12.45100021 -9.30875015 -0.23800001 93 85 109 853
12.44849968 -9.30675030 -0.23500000 93 85 109 1085
12.44674969 -9.30550003 -0.23000000 92 89 108 1335
12.44575024 -9.30475044 -0.22800000 92 89 108 3882
12.44550037 -9.30449963 -0.22700000 92 89 108 7696
12.44700050 -9.30550003 -0.22600000 121 125 136 13060
12.44674969 -9.30550003 -0.22499999 121 125 136 17132
12.44674969 -9.30550003 -0.22400001 121 125 136 16778
12.44575024 -9.30475044 -0.22300000 121 125 136 13246
12.44550037 -9.30449963 -0.22200000 121 125 136 9114
12.44350052 -9.30299950 -0.22100000 121 125 136 5500
12.44474983 -9.30399990 -0.22000000 121 125 136 2746
12.47175026 -9.32524967 -0.30399999 133 143 145 2410
12.47200012 -9.32550049 -0.30300000 133 143 145 6610
12.47350025 -9.32674980 -0.30199999 133 143 145 13225
12.47200012 -9.32550049 -0.30100000 133 143 145 18853
12.47350025 -9.32674980 -0.30000001 133 143 145 21657
12.47200012 -9.32550049 -0.29899999 133 143 145 21728
12.47074986 -9.32474995 -0.29800001 179 186 194 20764
12.47150040 -9.32524967 -0.29699999 179 186 194 18903
12.47000027 -9.32425022 -0.29600000 179 186 194 15767
12.47049999 -9.32450008 -0.29499999 179 186 194 12260
12.46800041 -9.32275009 -0.29400000 179 186 194 7860
12.47025013 -9.32450008 -0.29300001 179 186 194 4646
12.46850014 -9.32299995 -0.29200000 191 195 207 2992
12.46899986 -9.32324982 -0.28999999 191 195 207 1460
12.47074986 -9.32474995 -0.28799999 191 195 207 1021
12.47049999 -9.32450008 -0.28700000 191 195 207 928
12.46700001 -9.32200050 -0.28500000 151 150 168 807
12.46850014 -9.32299995 -0.28299999 151 150 168 789
12.46650028 -9.32149982 -0.28200001 151 150 168 789
12.46350002 -9.31925011 -0.27875000 111 106 129 814
12.46300030 -9.31875038 -0.27675000 111 106 129 828
12.46249962 -9.31849957 -0.27575001 111 106 129 832
12.46374989 -9.31949997 -0.27375001 111 106 129 814
12.46325016 -9.31900024 -0.27274999 111 106 129 785
12.46274948 -9.31875038 -0.27074999 93 84 113 714
12.46399975 -9.31949997 -0.26975000 93 84 113 739
12.46300030 -9.31875038 -0.26574999 91 80 112 721
12.46150017 -9.31799984 -0.26475000 91 80 112 775
12.46175003 -9.31799984 -0.26175001 91 80 112 739
12.45800018 -9.31525040 -0.26075000 91 80 112 775
12.45324993 -9.31149960 -0.25049999 93 78 111 796
12.45524979 -9.31299973 -0.24950001 93 78 111 846
12.45425034 -9.31250000 -0.24850000 93 78 111 785
12.45524979 -9.31299973 -0.24750000 93 78 111 796
12.45199966 -9.31075001 -0.24375001 99 86 116 789
12.45050049 -9.30949974 -0.24275000 99 86 116 785
12.45075035 -9.30974960 -0.24150001 99 86 116 857
12.44799995 -9.30749989 -0.23450001 100 90 115 1139
12.44999981 -9.30900002 -0.23350000 100 90 115 1214
12.44700050 -9.30675030 -0.23250000 120 115 137 1214
12.45125008 -9.31000042 -0.23150000 120 115 137 1239
12.44700050 -9.30675030 -0.22950000 120 115 137 2332
12.44674969 -9.30675030 -0.22849999 120 115 137 4889
12.44674969 -9.30650043 -0.22750001 120 115 137 9960
12.44550037 -9.30574989 -0.22650000 175 177 190 16278
12.44649982 -9.30650043 -0.22550000 175 177 190 19953
12.44624996 -9.30624962 -0.22450000 175 177 190 20842
12.44624996 -9.30624962 -0.22350000 175 177 190 19250
12.44550037 -9.30574989 -0.22250000 175 177 190 15435
12.44425011 -9.30475044 -0.22149999 175 177 190 10271
12.44474983 -9.30525017 -0.22050001 175 177 190 5692
12.47249985 -9.32750034 -0.30350000 133 143 145 8746
12.47274971 -9.32750034 -0.30250001 133 143 145 15153
12.47274971 -9.32750034 -0.30149999 133 143 145 20314
12.47125053 -9.32649994 -0.30050001 133 143 145 22314
12.47099972 -9.32625008 -0.29949999 133 143 145 23103
12.47000027 -9.32550049 -0.29850000 179 186 194 22239
12.46924973 -9.32474995 -0.29750001 179 186 194 21092
12.46949959 -9.32499981 -0.29650000 179 186 194 20892
12.47049999 -9.32600021 -0.29550001 179 186 194 19296
12.46975040 -9.32524967 -0.29449999 179 186 194 14978
12.47000027 -9.32550049 -0.29249999 179 186 194 5917
12.46800041 -9.32400036 -0.29150000 191 195 207 3389
12.46624947 -9.32250023 -0.29049999 191 195 207 2275
12.47049999 -9.32575035 -0.28950000 191 195 207 1542
12.46875000 -9.32450008 -0.28850001 191 195 207 1278
12.46574974 -9.32225037 -0.28049999 151 150 168 803
12.46274948 -9.31999969 -0.27950001 151 150 168 807
12.46224976 -9.31974983 -0.27325001 111 106 129 778
12.46150017 -9.31900024 -0.27225000 93 84 113 753
12.46000004 -9.31799984 -0.27125001 93 84 113 750
12.45950031 -9.31750011 -0.27024999 93 84 113 721
12.46125031 -9.31875038 -0.26824999 93 84 113 803
12.46074963 -9.31849957 -0.26324999 91 80 112 739
12.46100044 -9.31875038 -0.26124999 91 80 112 767
12.45699978 -9.31575012 -0.26025000 91 80 112 785
12.45899963 -9.31725025 -0.25725001 100 86 119 785
12.45475006 -9.31400013 -0.25525001 100 86 119 792
12.45475006 -9.31400013 -0.25424999 100 86 119 803
12.45650005 -9.31525040 -0.25224999 93 78 111 871
12.45349979 -9.31299973 -0.25000000 93 78 111 803
12.45250034 -9.31250000 -0.24900000 93 78 111 807
12.45450020 -9.31400013 -0.24600001 99 86 116 810
12.45300007 -9.31274986 -0.24400000 99 86 116 828
12.45024967 -9.31075001 -0.24200000 99 86 116 814
12.44874954 -9.30974960 -0.23800001 100 90 115 907
12.44900036 -9.30974960 -0.23700000 100 90 115 1028
12.44674969 -9.30799961 -0.23500000 100 90 115 1139
12.44999981 -9.31050014 -0.23400000 100 90 115 1217
12.44974995 -9.31025028 -0.23300000 120 115 137 1307
12.44750023 -9.30875015 -0.23199999 120 115 137 1553
12.44575024 -9.30725002 -0.22900000 120 115 137 8953
12.44575024 -9.30725002 -0.22800000 120 115 137 15046
12.44725037 -9.30850029 -0.22700000 120 115 137 21253
12.44649982 -9.30799961 -0.22600000 175 177 190 23378
12.44449997 -9.30650043 -0.22499999 175 177 190 24239
12.44550037 -9.30725002 -0.22400001 175 177 190 23975
12.44449997 -9.30650043 -0.22300000 175 177 190 21889
12.44375038 -9.30574989 -0.22200000 175 177 190 18128
12.44449997 -9.30650043 -0.22100000 175 177 190 12439
12.44274998 -9.30500031 -0.22000000 175 177 190 7571
12.44149971 -9.30399990 -0.21900000 213 220 228 3810
12.47175026 -9.32800007 -0.30500001 133 143 145 3917
12.47099972 -9.32750034 -0.30399999 133 143 145 9985
12.47249985 -9.32849979 -0.30300000 133 143 145 16200
12.47150040 -9.32775021 -0.30199999 133 143 145 20314
12.47125053 -9.32750034 -0.30100000 133 143 145 22242
12.47074986 -9.32724953 -0.30000001 133 143 145 23103
12.46949959 -9.32625008 -0.29899999 133 143 145 22467
12.46850014 -9.32550049 -0.29800001 179 186 194 22467
12.46899986 -9.32600021 -0.29699999 179 186 194 22700
12.47025013 -9.32674980 -0.29600000 179 186 194 22860
12.47000027 -9.32649994 -0.29499999 179 186 194 19939
12.46949959 -9.32625008 -0.29400000 179 186 194 15221
12.46975040 -9.32649994 -0.29300001 179 186 194 11171
12.46800041 -9.32524967 -0.29200000 179 186 194 6575
12.46675014 -9.32425022 -0.29100001 191 195 207 4064
12.46875000 -9.32575035 -0.28999999 191 195 207 2450
12.47000027 -9.32649994 -0.28900000 191 195 207 1746
12.46675014 -9.32425022 -0.28799999 191 195 207 1296
12.46500015 -9.32299995 -0.28700000 191 195 207 1100
12.46525002 -9.32324982 -0.28600001 191 195 207 1025
12.46650028 -9.32425022 -0.28500000 151 150 168 925
12.46325016 -9.32149982 -0.28400001 151 150 168 921
12.46374989 -9.32200050 -0.28099999 151 150 168 828
12.46500015 -9.32299995 -0.28000000 151 150 168 778
12.46424961 -9.32250023 -0.27900001 111 106 129 792
12.46325016 -9.32149982 -0.27774999 111 106 129 807
12.46274948 -9.32124996 -0.27074999 93 84 113 860
12.45899963 -9.31849957 -0.26975000 93 84 113 860
12.46049976 -9.31949997 -0.26374999 91 80 112 764
12.45699978 -9.31700039 -0.26075000 91 80 112 821
12.45724964 -9.31725025 -0.25475001 100 86 119 767
12.45300007 -9.31400013 -0.25250000 93 78 111 853
12.45450020 -9.31499958 -0.25075001 93 78 111 846
12.45400047 -9.31474972 -0.24875000 93 78 111 907
12.45374966 -9.31449986 -0.24675000 93 78 111 882
12.45374966 -9.31474972 -0.24575000 99 86 116 864
12.45149994 -9.31299973 -0.24375001 99 86 116 907
12.44950008 -9.31124973 -0.24250001 99 86 116 875
12.44799995 -9.31025028 -0.24050000 99 86 116 875
12.45199966 -9.31324959 -0.23975000 99 86 116 903
12.45224953 -9.31350040 -0.23875000 100 90 115 964
12.44974995 -9.31149960 -0.23649999 100 90 115 1067
12.44925022 -9.31124973 -0.23549999 100 90 115 1028
12.44674969 -9.30924988 -0.23450001 100 90 115 1200
12.44725037 -9.30949974 -0.23250000 120 115 137 1657
12.44524956 -9.30825043 -0.23050000 120 115 137 4578
12.44425011 -9.30749989 -0.22950000 120 115 137 9839
12.44449997 -9.30749989 -0.22849999 120 115 137 16157
12.44499969 -9.30799961 -0.22750001 120 115 137 21675
12.44449997 -9.30749989 -0.22650000 175 177 190 23975
12.44474983 -9.30774975 -0.22550000 175 177 190 24885
12.44425011 -9.30725002 -0.22450000 175 177 190 25567
12.44550037 -9.30825043 -0.22350000 175 177 190 24792
12.44324970 -9.30675030 -0.22250000 175 177 190 22257
12.44575024 -9.30850029 -0.22149999 175 177 190 17932
12.44400024 -9.30725002 -0.22050001 175 177 190 13603
12.44200039 -9.30574989 -0.21950001 213 220 228 7900
12.44250011 -9.30599976 -0.21850000 213 220 228 3996
12.44299984 -9.30650043 -0.21750000 213 220 228 2007
12.44099998 -9.30500031 -0.21650000 213 220 228 1132
12.47224998 -9.32975006 -0.30649999 109 121 119 2096
12.47099972 -9.32849979 -0.30550000 109 121 119 5357
12.47175026 -9.32925034 -0.30450001 133 143 145 11992
12.47150040 -9.32900047 -0.30350000 133 143 145 18075
12.47099972 -9.32849979 -0.30250001 133 143 145 22092
12.47150040 -9.32900047 -0.30149999 133 143 145 23107
12.47025013 -9.32800007 -0.30050001 133 143 145 24121
12.46975040 -9.32775021 -0.29949999 133 143 145 23514
12.46850014 -9.32674980 -0.29850000 179 186 194 23942
12.46825027 -9.32649994 -0.29750001 179 186 194 24296
12.46875000 -9.32699966 -0.29650000 179 186 194 23942
12.46875000 -9.32699966 -0.29550001 179 186 194 22939
12.46949959 -9.32750034 -0.29449999 179 186 194 20125
12.46899986 -9.32699966 -0.29350001 179 186 194 16992
12.46624947 -9.32499981 -0.29225001 179 186 194 12560
12.46825027 -9.32649994 -0.29150000 191 195 207 8407
12.46825027 -9.32674980 -0.29049999 191 195 207 4957
12.46549988 -9.32450008 -0.28924999 191 195 207 2967
12.46574974 -9.32474995 -0.28825000 191 195 207 1953
12.46850014 -9.32674980 -0.28749999 191 195 207 1535
12.46700001 -9.32550049 -0.28549999 151 150 168 1078
12.46800041 -9.32625008 -0.28450000 151 150 168 1007
12.46424961 -9.32349968 -0.28224999 151 150 168 871
12.46450043 -9.32374954 -0.27625000 111 106 129 807
12.46374989 -9.32299995 -0.27524999 111 106 129 828
12.45899963 -9.31949997 -0.27325001 111 106 129 839
12.45924950 -9.31974983 -0.27225000 93 84 113 821
12.46100044 -9.32124996 -0.26925001 93 84 113 828
12.45950031 -9.31999969 -0.26725000 93 84 113 860
12.46049976 -9.32075024 -0.26525000 91 80 112 860
12.45524979 -9.31674957 -0.25700000 100 86 119 789
12.45250034 -9.31474972 -0.25000000 93 78 111 832
12.45499992 -9.31674957 -0.24900000 93 78 111 871
12.45224953 -9.31474972 -0.24800000 93 78 111 857
12.45450020 -9.31624985 -0.24699999 93 78 111 889
12.45125008 -9.31375027 -0.24600001 99 86 116 832
12.45324993 -9.31550026 -0.24400000 99 86 116 928
12.44999981 -9.31299973 -0.24300000 99 86 116 914
12.45024967 -9.31299973 -0.24200000 99 86 116 917
12.44775009 -9.31124973 -0.23999999 99 86 116 917
12.45174980 -9.31424999 -0.23800001 100 90 115 1064
12.44950008 -9.31250000 -0.23700000 100 90 115 1096
12.44674969 -9.31050014 -0.23600000 100 90 115 1167
12.44874954 -9.31200027 -0.23500000 100 90 115 1296
12.44474983 -9.30900002 -0.23175000 120 115 137 4035
12.44425011 -9.30850029 -0.23074999 120 115 137 8157
12.44400024 -9.30850029 -0.23000000 120 115 137 14578
12.44600010 -9.31000042 -0.22900000 120 115 137 20264
12.44524956 -9.30949974 -0.22800000 120 115 137 23803
12.44575024 -9.30974960 -0.22700000 120 115 137 25571
12.44425011 -9.30875015 -0.22600000 175 177 190 25367
12.44474983 -9.30900002 -0.22499999 175 177 190 25671
12.44425011 -9.30850029 -0.22400001 175 177 190 25767
12.44299984 -9.30774975 -0.22274999 175 177 190 24885
12.44299984 -9.30774975 -0.22175001 175 177 190 22564
12.44299984 -9.30774975 -0.22075000 175 177 190 18382
12.44350052 -9.30799961 -0.22000000 213 220 228 12907
12.44075012 -9.30599976 -0.21875000 213 220 228 8185
12.44274998 -9.30749989 -0.21799999 213 220 228 4614
12.47424984 -9.33224964 -0.30500001 133 143 145 13364
12.47274971 -9.33125019 -0.30399999 133 143 145 19246
12.47099972 -9.32999992 -0.30300000 133 143 145 22707
12.47074986 -9.32975006 -0.30199999 133 143 145 24764
12.46875000 -9.32824993 -0.30100000 133 143 145 25139
12.47000027 -9.32925034 -0.30000001 133 143 145 24667
12.46924973 -9.32849979 -0.29899999 133 143 145 25042
12.46975040 -9.32900047 -0.29800001 179 186 194 24950
12.47099972 -9.32975006 -0.29699999 179 186 194 25335
12.46899986 -9.32849979 -0.29600000 179 186 194 24121
12.46825027 -9.32775021 -0.29499999 179 186 194 22860
12.46825027 -9.32775021 -0.29400000 179 186 194 21164
12.46949959 -9.32874966 -0.29300001 179 186 194 18378
12.46875000 -9.32824993 -0.29200000 191 195 207 14324
12.46700001 -9.32674980 -0.29100001 191 195 207 9685
12.46650028 -9.32649994 -0.28999999 191 195 207 6064
12.46774960 -9.32724953 -0.28799999 191 195 207 2339
12.46675014 -9.32674980 -0.28674999 191 195 207 1578
12.46424961 -9.32474995 -0.28575000 191 195 207 1282
12.46450043 -9.32499981 -0.28475001 151 150 168 1135
12.46650028 -9.32649994 -0.28275001 151 150 168 971
12.46224976 -9.32349968 -0.27875000 111 106 129 828
12.46074963 -9.32225037 -0.27675000 111 106 129 832
12.46325016 -9.32400036 -0.27375001 111 106 129 832
12.45775032 -9.31999969 -0.27149999 93 84 113 821
12.45750046 -9.31974983 -0.27050000 93 84 113 764
12.46100044 -9.32225037 -0.26975000 93 84 113 828
12.45950031 -9.32124996 -0.26875001 93 84 113 842
12.46074963 -9.32200050 -0.26774999 93 84 113 846
12.46074963 -9.32225037 -0.26675001 93 84 113 864
12.46000004 -9.32149982 -0.26374999 91 80 112 732
12.45450020 -9.31750011 -0.26050001 91 80 112 775
12.45574951 -9.31849957 -0.25650001 100 86 119 825
12.45549965 -9.31824970 -0.25350001 100 86 119 889
12.45275021 -9.31624985 -0.25250000 93 78 111 846
12.45450020 -9.31750011 -0.24750000 93 78 111 875
12.45300007 -9.31624985 -0.24450000 99 86 116 967
12.45275021 -9.31624985 -0.24349999 99 86 116 889
12.44824982 -9.31274986 -0.24250001 99 86 116 935
12.44849968 -9.31299973 -0.24050000 99 86 116 950
12.44799995 -9.31274986 -0.23950000 100 90 115 985
12.44849968 -9.31299973 -0.23750000 100 90 115 1125
12.44950008 -9.31375027 -0.23649999 100 90 115 1135
12.44674969 -9.31175041 -0.23350000 100 90 115 2439
12.44499969 -9.31025028 -0.23150000 120 115 137 8964
12.44600010 -9.31124973 -0.23050000 120 115 137 14514
12.44600010 -9.31099987 -0.22950000 120 115 137 19957
12.44524956 -9.31050014 -0.22849999 120 115 137 24064
12.44499969 -9.31025028 -0.22750001 120 115 137 25371
12.44499969 -9.31025028 -0.22650000 175 177 190 25371
12.44324970 -9.30900002 -0.22525001 175 177 190 25467
12.44400024 -9.30949974 -0.22425000 175 177 190 25571
12.44425011 -9.30974960 -0.22325000 175 177 190 26285
12.44225025 -9.30825043 -0.22225000 175 177 190 25171
12.44225025 -9.30825043 -0.22125000 175 177 190 22414
12.44274998 -9.30875015 -0.22050001 175 177 190 18971
12.44250011 -9.30850029 -0.21924999 213 220 228 14071
12.44149971 -9.30774975 -0.21825001 213 220 228 9110
12.44124985 -9.30774975 -0.21725000 213 220 228 5225
12.44274998 -9.30875015 -0.21625000 213 220 228 2617
12.43924999 -9.30599976 -0.21525000 213 220 228 1321
12.47125053 -9.33150005 -0.30649999 109 121 119 7192
12.47200012 -9.33199978 -0.30550000 109 121 119 14021
12.47074986 -9.33100033 -0.30450001 133 143 145 19646
12.47049999 -9.33074951 -0.30350000 133 143 145 23353
12.47025013 -9.33074951 -0.30250001 133 143 145 25335
12.47099972 -9.33125019 -0.30149999 133 143 145 26042
12.46825027 -9.32925034 -0.30050001 133 143 145 25432
12.46949959 -9.33024979 -0.29949999 133 143 145 25432
12.46875000 -9.32950020 -0.29850000 179 186 194 26350
12.46825027 -9.32925034 -0.29750001 179 186 194 25328
12.46899986 -9.32975006 -0.29650000 179 186 194 24664
12.46774960 -9.32874966 -0.29550001 179 186 194 24032
12.46875000 -9.32950020 -0.29449999 179 186 194 23185
12.46749973 -9.32849979 -0.29350001 179 186 194 22235
12.46650028 -9.32775021 -0.29225001 179 186 194 20121
12.46675014 -9.32800007 -0.29124999 191 195 207 16817
12.46800041 -9.32900047 -0.29049999 191 195 207 11882
12.46624947 -9.32750034 -0.28950000 191 195 207 7596
12.46525002 -9.32699966 -0.28850001 191 195 207 4550
12.46500015 -9.32674980 -0.28749999 191 195 207 2900
12.46574974 -9.32724953 -0.28650001 191 195 207 1971
12.46374989 -9.32575035 -0.28325000 151 150 168 942
12.46175003 -9.32425022 -0.28224999 151 150 168 985
12.46450043 -9.32625008 -0.28125000 151 150 168 957
12.45549965 -9.31949997 -0.26499999 91 80 112 825
12.45775032 -9.32124996 -0.26025000 91 80 112 825
12.45549965 -9.31949997 -0.25600001 100 86 119 832
12.45374966 -9.31824970 -0.25500000 100 86 119 907
12.45374966 -9.31824970 -0.25400001 100 86 119 892
12.45100021 -9.31624985 -0.25299999 100 86 119 832
12.45224953 -9.31725025 -0.25099999 93 78 111 842
12.45100021 -9.31624985 -0.25000000 93 78 111 853
12.44925022 -9.31499958 -0.24600001 99 86 116 950
12.45174980 -9.31674957 -0.24400000 99 86 116 957
12.45174980 -9.31674957 -0.24300000 99 86 116 1014
12.44775009 -9.31375027 -0.24100000 99 86 116 992
12.44799995 -9.31400013 -0.23899999 100 90 115 1103
12.44750023 -9.31350040 -0.23800001 100 90 115 1139
12.44624996 -9.31274986 -0.23600000 100 90 115 1489
12.44700050 -9.31324959 -0.23500000 100 90 115 2192
12.44499969 -9.31175041 -0.23400000 100 90 115 3950
12.44700050 -9.31324959 -0.23300000 120 115 137 7832
12.44600010 -9.31250000 -0.23199999 120 115 137 14228
12.44524956 -9.31200027 -0.23100001 120 115 137 20332
12.44524956 -9.31200027 -0.23000000 120 115 137 23632
12.44550037 -9.31225014 -0.22900000 120 115 137 25374
12.44350052 -9.31050014 -0.22800000 120 115 137 25571
12.44449997 -9.31124973 -0.22700000 120 115 137 25871
12.44350052 -9.31050014 -0.22600000 175 177 190 26285
12.44274998 -9.31000042 -0.22499999 175 177 190 26714
12.44324970 -9.31050014 -0.22400001 175 177 190 26932
12.44449997 -9.31124973 -0.22300000 175 177 190 26610
12.44250011 -9.31000042 -0.22200000 175 177 190 24885
12.44099998 -9.30875015 -0.22075000 175 177 190 23796
12.44324970 -9.31050014 -0.22000000 213 220 228 21250
12.44124985 -9.30900002 -0.21900000 213 220 228 17267
12.43924999 -9.30749989 -0.21775000 213 220 228 11221
12.43924999 -9.30749989 -0.21675000 213 220 228 6292
12.44124985 -9.30900002 -0.21500000 213 220 228 1632
12.46949959 -9.33125019 -0.30700001 109 121 119 6278
12.46975040 -9.33150005 -0.30599999 109 121 119 13042
12.47099972 -9.33224964 -0.30500001 133 143 145 19189
12.47150040 -9.33275032 -0.30399999 133 143 145 22950
12.47025013 -9.33174992 -0.30300000 133 143 145 24953
12.46924973 -9.33100033 -0.30199999 133 143 145 25935
12.46850014 -9.33049965 -0.30100000 133 143 145 25732
12.46724987 -9.32950020 -0.30000001 133 143 145 25428
12.46774960 -9.32999992 -0.29899999 133 143 145 26350
12.46875000 -9.33074951 -0.29800001 179 186 194 25832
12.46724987 -9.32950020 -0.29699999 179 186 194 25139
12.46899986 -9.33100033 -0.29600000 179 186 194 24300
12.46774960 -9.32999992 -0.29499999 179 186 194 23771
12.46724987 -9.32950020 -0.29400000 179 186 194 23432
12.46800041 -9.32999992 -0.29300001 179 186 194 22542
12.46825027 -9.33049965 -0.29200000 191 195 207 21096
12.46675014 -9.32925034 -0.29100001 191 195 207 17539
12.46500015 -9.32800007 -0.28999999 191 195 207 13353
12.46599960 -9.32874966 -0.28900000 191 195 207 8596
12.46450043 -9.32750034 -0.28775001 191 195 207 5385
12.46399975 -9.32724953 -0.28674999 191 195 207 3167
12.46300030 -9.32649994 -0.28475001 151 150 168 1517
12.46175003 -9.32550049 -0.28275001 151 150 168 1028
12.46525002 -9.32800007 -0.28174999 151 150 168 960
12.46274948 -9.32625008 -0.28075001 151 150 168 939
12.46199989 -9.32575035 -0.27974999 151 150 168 917
12.45950031 -9.32400036 -0.27575001 111 106 129 842
12.46224976 -9.32600021 -0.27375001 111 106 129 821
12.45674992 -9.32174969 -0.27149999 93 84 113 803
12.45800018 -9.32275009 -0.27074999 93 84 113 842
12.45849991 -9.32324982 -0.26675001 93 84 113 839
12.45650005 -9.32174969 -0.26449999 91 80 112 753
12.45825005 -9.32299995 -0.26350001 91 80 112 782
12.45674992 -9.32200050 -0.26150000 91 80 112 814
12.45475006 -9.32024956 -0.25749999 100 86 119 803
12.45174980 -9.31799984 -0.25549999 100 86 119 842
12.45349979 -9.31925011 -0.25450000 100 86 119 846
12.45050049 -9.31725025 -0.25350001 100 86 119 928
12.45050049 -9.31700039 -0.25150001 93 78 111 885
12.44999981 -9.31674957 -0.24650000 93 78 111 892
12.45075035 -9.31725025 -0.24550000 99 86 116 932
12.44775009 -9.31525040 -0.24450000 99 86 116 971
12.44725037 -9.31449986 -0.24349999 99 86 116 996
12.45075035 -9.31725025 -0.24250001 99 86 116 1003
12.44950008 -9.31649971 -0.24150001 99 86 116 1025
12.44900036 -9.31599998 -0.23950000 100 90 115 1153
12.44649982 -9.31400013 -0.23649999 100 90 115 1610
12.44750023 -9.31474972 -0.23549999 100 90 115 2217
12.44624996 -9.31375027 -0.23450001 100 90 115 4296
12.44474983 -9.31274986 -0.23350000 100 90 115 8821
12.44425011 -9.31225014 -0.23250000 120 115 137 15510
12.44600010 -9.31375027 -0.23150000 120 115 137 20850
12.44600010 -9.31350040 -0.23050000 120 115 137 23810
12.44499969 -9.31299973 -0.22950000 120 115 137 26082
12.44324970 -9.31149960 -0.22849999 120 115 137 26500
12.44350052 -9.31175041 -0.22750001 120 115 137 25974
12.44174957 -9.31050014 -0.22624999 175 177 190 26389
12.44299984 -9.31124973 -0.22525001 175 177 190 26825
12.44174957 -9.31050014 -0.22425000 175 177 190 26714
12.44324970 -9.31149960 -0.22325000 175 177 190 26825
12.44124985 -9.31000042 -0.22225000 175 177 190 25971
12.44124985 -9.31025028 -0.22125000 175 177 190 25767
12.44025040 -9.30924988 -0.22025000 175 177 190 25167
12.44200039 -9.31075001 -0.21924999 213 220 228 22414
12.44099998 -9.31000042 -0.21825001 213 220 228 18803
12.44200039 -9.31050014 -0.21750000 213 220 228 12982
12.44000053 -9.30924988 -0.21625000 213 220 228 6864
12.44075012 -9.30974960 -0.21525000 213 220 228 3203
12.47025013 -9.33300018 -0.30950001 110 121 123 1278
12.46899986 -9.33224964 -0.30750000 110 121 123 8307
12.47074986 -9.33349991 -0.30649999 110 121 123 15089
12.47025013 -9.33325005 -0.30550000 110 121 123 20007
12.46975040 -9.33275032 -0.30450001 146 157 163 22867
12.46899986 -9.33224964 -0.30350000 146 157 163 25046
12.46924973 -9.33250046 -0.30250001 146 157 163 26042
12.46675014 -9.33049965 -0.30149999 146 157 163 26996
12.46899986 -9.33224964 -0.30050001 146 157 163 27003
12.46774960 -9.33125019 -0.29949999 146 157 163 26453
12.46749973 -9.33100033 -0.29850000 194 203 212 25332
12.46749973 -9.33100033 -0.29750001 194 203 212 25332
12.46749973 -9.33100033 -0.29650000 194 203 212 24575
12.46599960 -9.32999992 -0.29550001 194 203 212 24389
12.46700001 -9.33074951 -0.29449999 194 203 212 23946
12.46700001 -9.33074951 -0.29350001 194 203 212 24210
12.46724987 -9.33074951 -0.29249999 194 203 212 23432
12.46549988 -9.32950020 -0.29150000 218 222 234 22089
12.46549988 -9.32950020 -0.29049999 218 222 234 19067
12.46424961 -9.32849979 -0.28950000 218 222 234 14939
12.46475029 -9.32900047 -0.28850001 218 222 234 10753
12.46325016 -9.32775021 -0.28725001 218 222 234 6800
12.46424961 -9.32874966 -0.28650001 218 222 234 4067
12.46175003 -9.32674980 -0.28525001 192 193 211 2435
12.46399975 -9.32824993 -0.28450000 192 193 211 1774
12.45950031 -9.32499981 -0.28125000 192 193 211 1050
12.46024990 -9.32550049 -0.27825001 149 146 167 978
12.46024990 -9.32550049 -0.27524999 149 146 167 789
12.45924950 -9.32474995 -0.27024999 106 100 126 792
12.45825005 -9.32400036 -0.26824999 106 100 126 767
12.45625019 -9.32250023 -0.26324999 89 80 109 782
12.45475006 -9.32149982 -0.26100001 89 80 109 850
12.45499992 -9.32149982 -0.25900000 96 87 116 860
12.45125008 -9.31875038 -0.25700000 96 87 116 814
12.45125008 -9.31875038 -0.25200000 96 85 115 892
12.44925022 -9.31725025 -0.25000000 96 85 115 942
12.44950008 -9.31750011 -0.24600001 98 88 115 953
12.44775009 -9.31624985 -0.24300000 98 88 115 1003
12.44849968 -9.31674957 -0.24200000 98 88 115 1057
12.44974995 -9.31774998 -0.24100000 98 88 115 1085
12.44750023 -9.31599998 -0.23999999 98 88 115 1146
12.44725037 -9.31575012 -0.23899999 115 107 131 1217
12.44575024 -9.31474972 -0.23800001 115 107 131 1375
12.44674969 -9.31550026 -0.23500000 115 107 131 6042
12.44674969 -9.31550026 -0.23400000 115 107 131 11507
12.44649982 -9.31525040 -0.23300000 165 162 181 17989
12.44499969 -9.31424999 -0.23199999 165 162 181 22046
12.44449997 -9.31375027 -0.23100001 165 162 181 24160
12.44400024 -9.31350040 -0.23000000 165 162 181 26289
12.44400024 -9.31324959 -0.22900000 165 162 181 27164
12.44299984 -9.31274986 -0.22800000 165 162 181 26828
12.44274998 -9.31250000 -0.22700000 165 162 181 26392
12.44299984 -9.31274986 -0.22600000 226 228 241 27275
12.44250011 -9.31225014 -0.22499999 226 228 241 27385
12.44350052 -9.31299973 -0.22400001 226 228 241 27735
12.44174957 -9.31175041 -0.22300000 226 228 241 26932
12.44149971 -9.31149960 -0.22200000 226 228 241 26182
12.44099998 -9.31124973 -0.22100000 226 228 241 25767
12.44000053 -9.31025028 -0.21975000 242 249 255 25074
12.44075012 -9.31099987 -0.21900000 242 249 255 22960
12.44124985 -9.31149960 -0.21799999 242 249 255 17546
12.43924999 -9.31000042 -0.21699999 242 249 255 11378
12.43924999 -9.30974960 -0.21600001 242 249 255 6125
12.43725014 -9.30825043 -0.21500000 242 249 255 3167
12.46875000 -9.33325005 -0.30800000 110 121 123 7071
12.47025013 -9.33450031 -0.30700001 110 121 123 13257
12.46899986 -9.33349991 -0.30599999 110 121 123 20007
12.46949959 -9.33374977 -0.30500001 146 157 163 23189
12.46924973 -9.33374977 -0.30399999 146 157 163 24953
12.46949959 -9.33374977 -0.30300000 146 157 163 26460
12.46899986 -9.33349991 -0.30199999 146 157 163 26460
12.46924973 -9.33349991 -0.30100000 146 157 163 26896
12.46749973 -9.33224964 -0.30000001 146 157 163 26457
12.46774960 -9.33250046 -0.29899999 146 157 163 25632
12.46825027 -9.33275032 -0.29800001 194 203 212 25335
12.46700001 -9.33199978 -0.29699999 194 203 212 25235
12.46675014 -9.33174992 -0.29600000 194 203 212 24760
12.46650028 -9.33150005 -0.29499999 194 203 212 24389
12.46525002 -9.33049965 -0.29400000 194 203 212 24660
12.46599960 -9.33125019 -0.29300001 194 203 212 24478
12.46574974 -9.33100033 -0.29200000 218 222 234 24117
12.46549988 -9.33074951 -0.29100001 218 222 234 22235
12.46525002 -9.33074951 -0.28999999 218 222 234 20246
12.46325016 -9.32900047 -0.28874999 218 222 234 16946
12.46325016 -9.32900047 -0.28775001 218 222 234 12985
12.46274948 -9.32874966 -0.28674999 218 222 234 8671
12.46374989 -9.32950020 -0.28600001 218 222 234 5142
12.46274948 -9.32874966 -0.28475001 192 193 211 3078
12.46424961 -9.32975006 -0.28375000 192 193 211 2057
12.46325016 -9.32925034 -0.28275001 192 193 211 1482
12.46300030 -9.32900047 -0.28075001 192 193 211 1071
12.45975018 -9.32649994 -0.27974999 192 193 211 992
12.45975018 -9.32649994 -0.27774999 149 146 167 889
12.45825005 -9.32550049 -0.27575001 149 146 167 853
12.46125031 -9.32775021 -0.27474999 149 146 167 807
12.46049976 -9.32699966 -0.27375001 149 146 167 810
12.45775032 -9.32499981 -0.27274999 149 146 167 782
12.45724964 -9.32474995 -0.27074999 106 100 126 810
12.45499992 -9.32299995 -0.26949999 106 100 126 825
12.45699978 -9.32450008 -0.26574999 89 80 109 800
12.45524979 -9.32324982 -0.26449999 89 80 109 810
12.45699978 -9.32450008 -0.26150000 89 80 109 832
12.45324993 -9.32174969 -0.26050001 89 80 109 842
12.45125008 -9.32024956 -0.25950000 89 80 109 825
12.45400047 -9.32225037 -0.25549999 96 87 116 860
12.44950008 -9.31900024 -0.25450000 96 87 116 853
12.45075035 -9.31974983 -0.25350001 96 87 116 871
12.45174980 -9.32050037 -0.25250000 96 85 115 871
12.45075035 -9.31999969 -0.25049999 96 85 115 942
12.45100021 -9.31999969 -0.24750000 96 85 115 967
12.44849968 -9.31824970 -0.24650000 96 85 115 925
12.44775009 -9.31750011 -0.24150001 98 88 115 1117
12.44499969 -9.31550026 -0.23649999 115 107 131 3528
12.44324970 -9.31424999 -0.23549999 115 107 131 7682
12.44474983 -9.31525040 -0.23450001 115 107 131 13871
12.44400024 -9.31474972 -0.23350000 115 107 131 19542
12.44474983 -9.31525040 -0.23250000 165 162 181 22346
12.44350052 -9.31424999 -0.23150000 165 162 181 24892
12.44299984 -9.31400013 -0.23050000 165 162 181 26610
12.44200039 -9.31324959 -0.22950000 165 162 181 27275
12.44250011 -9.31350040 -0.22849999 165 162 181 27160
12.44324970 -9.31400013 -0.22750001 165 162 181 26721
12.44350052 -9.31424999 -0.22650000 226 228 241 26828
12.44124985 -9.31274986 -0.22550000 226 228 241 27732
12.44200039 -9.31299973 -0.22450000 226 228 241 28335
12.44200039 -9.31324959 -0.22350000 226 228 241 28092
12.44149971 -9.31274986 -0.22225000 226 228 241 26717
12.44099998 -9.31250000 -0.22125000 226 228 241 26389
12.44050026 -9.31200027 -0.22025000 226 228 241 26282
12.44050026 -9.31200027 -0.21924999 242 249 255 24603
12.43974972 -9.31149960 -0.21825001 242 249 255 22882
12.43900013 -9.31099987 -0.21725000 242 249 255 17732
12.43675041 -9.30924988 -0.21625000 242 249 255 11353
12.43900013 -9.31099987 -0.21525000 242 249 255 6107
12.43725014 -9.30974960 -0.21425000 242 249 255 3264
12.46774960 -9.33374977 -0.30849999 110 121 123 7850
12.46749973 -9.33349991 -0.30750000 110 121 123 14232
12.46899986 -9.33475018 -0.30649999 110 121 123 20575
12.46949959 -9.33500004 -0.30550000 110 121 123 23439
12.46899986 -9.33475018 -0.30450001 146 157 163 24671
12.46749973 -9.33349991 -0.30350000 146 157 163 25435
12.46774960 -9.33374977 -0.30250001 146 157 163 26353
12.46774960 -9.33374977 -0.30149999 146 157 163 25635
12.46724987 -9.33325005 -0.30050001 146 157 163 24950
12.46700001 -9.33325005 -0.29949999 146 157 163 25332
12.46650028 -9.33275032 -0.29850000 194 203 212 25632
12.46549988 -9.33199978 -0.29725000 194 203 212 25328
12.46525002 -9.33174992 -0.29624999 194 203 212 25135
12.46500015 -9.33174992 -0.29525000 194 203 212 25135
12.46525002 -9.33174992 -0.29425001 194 203 212 25528
12.46549988 -9.33199978 -0.29350001 194 203 212 25135
12.46374989 -9.33074951 -0.29225001 194 203 212 24753
12.46424961 -9.33100033 -0.29124999 218 222 234 24028
12.46475029 -9.33150005 -0.29025000 218 222 234 22775
12.46274948 -9.32999992 -0.28924999 218 222 234 21432
12.46399975 -9.33074951 -0.28825000 218 222 234 19014
12.46300030 -9.32999992 -0.28725001 218 222 234 14767
12.46150017 -9.32900047 -0.28625000 218 222 234 9903
12.46325016 -9.33024979 -0.28525001 192 193 211 6160
12.46274948 -9.32999992 -0.28424999 192 193 211 3778
12.45899963 -9.32699966 -0.28325000 192 193 211 2303
12.46350002 -9.33049965 -0.28250000 192 193 211 1664
12.46325016 -9.33024979 -0.28125000 192 193 211 1289
12.45775032 -9.32625008 -0.27825001 149 146 167 939
12.46024990 -9.32800007 -0.27724999 149 146 167 885
12.45650005 -9.32524967 -0.27625000 149 146 167 810
12.45800018 -9.32625008 -0.27524999 149 146 167 839
12.45625019 -9.32499981 -0.27024999 106 100 126 742
12.45625019 -9.32499981 -0.26824999 106 100 126 771
12.45775032 -9.32625008 -0.26725000 106 100 126 792
12.45524979 -9.32425022 -0.26625001 106 100 126 825
12.45374966 -9.32324982 -0.26324999 89 80 109 842
12.45549965 -9.32450008 -0.26225001 89 80 109 828
12.45224953 -9.32200050 -0.26025000 89 80 109 821
12.45125008 -9.32124996 -0.25400001 96 87 116 910
12.45300007 -9.32250023 -0.25200000 96 85 115 889
12.44824982 -9.31900024 -0.25099999 96 85 115 928
12.45174980 -9.32174969 -0.24800000 96 85 115 928
12.44700050 -9.31799984 -0.24500000 98 88 115 1003
12.44874954 -9.31925011 -0.23999999 98 88 115 1385
12.44425011 -9.31599998 -0.23774999 115 107 131 2685
12.44375038 -9.31575012 -0.23675001 115 107 131 5092
12.44425011 -9.31599998 -0.23575000 115 107 131 10985
12.44524956 -9.31674957 -0.23500000 115 107 131 17007
12.44425011 -9.31624985 -0.23375000 115 107 131 20785
12.44350052 -9.31550026 -0.23275000 165 162 181 23300
12.44324970 -9.31525040 -0.23175000 165 162 181 26396
12.44250011 -9.31474972 -0.23074999 165 162 181 27275
12.44274998 -9.31499958 -0.22975001 165 162 181 28217
12.44299984 -9.31499958 -0.22875001 165 162 181 28100
12.44250011 -9.31474972 -0.22775000 165 162 181 27389
12.44149971 -9.31400013 -0.22675000 165 162 181 26717
12.44124985 -9.31375027 -0.22575000 226 228 241 27046
12.44124985 -9.31375027 -0.22475000 226 228 241 27971
12.44149971 -9.31400013 -0.22400001 226 228 241 28092
12.44075012 -9.31350040 -0.22300000 226 228 241 27853
12.44075012 -9.31350040 -0.22200000 226 228 241 27385
12.43949986 -9.31250000 -0.22075000 226 228 241 27267
12.44000053 -9.31299973 -0.21975000 242 249 255 26389
12.43924999 -9.31225014 -0.21875000 242 249 255 25364
12.43900013 -9.31200027 -0.21775000 242 249 255 22882
12.43774986 -9.31124973 -0.21675000 242 249 255 18278
12.43875027 -9.31200027 -0.21600001 242 249 255 12250
12.43550014 -9.30949974 -0.21475001 242 249 255 6914
12.43575001 -9.30974960 -0.21375000 242 249 255 3428
12.46825027 -9.33524990 -0.30800000 110 121 123 14292
12.46899986 -9.33574963 -0.30700001 110 121 123 20317
12.46850014 -9.33549976 -0.30599999 110 121 123 23610
12.46899986 -9.33574963 -0.30500001 146 157 163 25050
12.46875000 -9.33574963 -0.30399999 146 157 163 25339
12.46724987 -9.33475018 -0.30300000 146 157 163 24764
12.46825027 -9.33524990 -0.30199999 146 157 163 24578
12.46850014 -9.33549976 -0.30100000 146 157 163 24578
12.46700001 -9.33424950 -0.30000001 146 157 163 24485
12.46700001 -9.33424950 -0.29899999 146 157 163 25735
12.46599960 -9.33374977 -0.29800001 194 203 212 25632
12.46549988 -9.33325005 -0.29699999 194 203 212 26035
12.46525002 -9.33325005 -0.29600000 194 203 212 25832
12.46399975 -9.33199978 -0.29499999 194 203 212 25828
12.46350002 -9.33174992 -0.29400000 194 203 212 25039
