//X Y Z R G B Intensity
-2.54099989 -3.12750006 7.16575003 188 195 205 20389
-2.54049993 -3.12724996 7.16650009 188 195 205 20739
-2.54025006 -3.12674999 7.16849995 191 198 208 20667
-2.53975010 -3.12625003 7.16874981 191 198 208 20596
-2.53950000 -3.12575006 7.17049980 191 198 208 20317
-2.53924990 -3.12549996 7.17124987 190 193 208 20114
-2.53900003 -3.12525010 7.17199993 190 193 208 20385
-2.53874993 -3.12500000 7.17299986 190 193 208 20385
-2.53874993 -3.12500000 7.17474985 190 193 208 19910
-2.53850007 -3.12450004 7.17624998 190 193 208 20178
-2.53800011 -3.12424994 7.17675018 190 193 208 20450
-2.53775001 -3.12350011 7.17700005 190 193 208 20732
-2.53749990 -3.12325001 7.17799997 190 193 208 20660
-2.53649998 -3.12225008 7.17850018 187 193 207 20517
-2.53675008 -3.12249994 7.18074989 187 193 207 20107
-2.53649998 -3.12225008 7.18149996 187 193 207 19396
-2.53649998 -3.12225008 7.18274975 187 193 207 19089
-2.53600001 -3.12150002 7.18249989 187 193 205 18971
-2.53550005 -3.12100005 7.18449974 187 193 205 19150
-2.53500009 -3.12050009 7.18449974 187 193 205 19975
-2.53500009 -3.12050009 7.18599987 187 193 205 20514
-2.53524995 -3.12050009 7.18774986 187 194 204 20939
-2.53450012 -3.11975002 7.18875027 187 194 204 20867
-2.53450012 -3.11975002 7.19000006 187 194 204 20939
-2.53425002 -3.11949992 7.19124985 184 191 201 20167
-2.53375006 -3.11899996 7.19124985 184 191 201 19389
-2.53349996 -3.11849999 7.19325018 184 191 201 15992
-2.52974987 -3.11374998 7.20424986 170 169 183 628
-2.52874994 -3.11249995 7.20874977 132 128 145 557
-2.55224991 -3.14100003 7.12849998 83 71 95 475
-2.54824996 -3.13625002 7.14174986 80 75 98 657
-2.54725003 -3.13474989 7.14449978 121 118 139 935
-2.54649997 -3.13374996 7.14499998 121 118 139 1471
-2.54575014 -3.13299990 7.14900017 170 169 187 12500
-2.54575014 -3.13299990 7.15075016 170 169 187 15478
-2.54474998 -3.13175011 7.15075016 192 194 209 18578
-2.54500008 -3.13225007 7.15275002 192 194 209 19664
-2.54449987 -3.13150001 7.15275002 192 194 209 20607
-2.54425001 -3.13124990 7.15374994 192 194 209 20746
-2.54449987 -3.13124990 7.15549994 192 194 209 21110
-2.54400015 -3.13074994 7.15549994 191 195 207 20960
-2.54400015 -3.13074994 7.15675020 191 195 207 20603
-2.54375005 -3.13050008 7.15799999 191 195 207 20742
-2.54299998 -3.12975001 7.15875006 191 195 207 21407
-2.54274988 -3.12925005 7.15925026 188 192 203 21407
-2.54250002 -3.12899995 7.16025019 188 192 203 21107
-2.54224992 -3.12875009 7.16100025 188 192 203 20814
-2.54200006 -3.12849998 7.16324997 188 195 205 19657
-2.54150009 -3.12774992 7.16324997 188 195 205 19789
-2.54150009 -3.12774992 7.16424990 188 195 205 19592
-2.54124999 -3.12750006 7.16550016 188 195 205 19853
-2.54124999 -3.12750006 7.16674995 188 195 205 20185
-2.54099989 -3.12700009 7.16725016 191 198 208 20389
-2.54049993 -3.12649989 7.16750002 191 198 208 20253
-2.53975010 -3.12549996 7.16949987 191 198 208 20182
-2.53975010 -3.12549996 7.17100000 190 193 208 20735
-2.53975010 -3.12549996 7.17275000 190 193 208 20878
-2.53900003 -3.12474990 7.17350006 190 193 208 20385
-2.53900003 -3.12450004 7.17474985 190 193 208 20110
-2.53824997 -3.12374997 7.17425013 190 193 208 19846
-2.53850007 -3.12424994 7.17675018 190 193 208 20246
-2.53749990 -3.12275004 7.17649984 190 193 208 20110
-2.53749990 -3.12299991 7.17824984 190 193 208 20803
-2.53725004 -3.12275004 7.17899990 187 193 207 21021
-2.53749990 -3.12275004 7.18074989 187 193 207 20310
-2.53699994 -3.12199998 7.18225002 187 193 207 19646
-2.53649998 -3.12150002 7.18249989 187 193 205 19335
-2.53600001 -3.12124991 7.18274975 187 193 205 19150
-2.53625011 -3.12150002 7.18499994 187 193 205 18907
-2.53550005 -3.12024999 7.18400002 187 193 205 19392
-2.53574991 -3.12050009 7.18599987 187 193 205 20239
-2.53524995 -3.12024999 7.18650007 187 194 204 20725
-2.53425002 -3.11875010 7.19050026 184 191 201 20167
-2.53375006 -3.11824989 7.19099998 184 191 201 19264
-2.53299999 -3.11750007 7.19325018 184 191 201 12692
-2.53250003 -3.11675000 7.19775009 182 186 195 2578
-2.53174996 -3.11575007 7.19700003 182 186 195 1664
-2.53100014 -3.11474991 7.20324993 170 169 183 739
-2.52999997 -3.11374998 7.20249987 170 169 183 660
-2.52925014 -3.11275005 7.20774984 132 128 145 528
-2.55075002 -3.13849998 7.13275003 90 82 105 575
-2.54874992 -3.13625002 7.13899994 87 82 104 657
-2.54750013 -3.13474989 7.14400005 141 140 158 928
-2.54675007 -3.13374996 7.14599991 141 140 158 2246
-2.54649997 -3.13325000 7.14650011 141 140 158 4567
-2.54624987 -3.13299990 7.14774990 183 185 200 8060
-2.54624987 -3.13299990 7.14874983 183 185 200 12003
-2.54624987 -3.13299990 7.15024996 183 185 200 15442
-2.54600000 -3.13275003 7.15075016 183 185 200 17550
-2.54550004 -3.13225007 7.15149975 183 185 200 18753
-2.54474998 -3.13124990 7.15224981 193 195 208 20264
-2.54474998 -3.13124990 7.15324974 193 195 208 20817
-2.54474998 -3.13150001 7.15525007 193 195 208 20960
-2.54425001 -3.13074994 7.15525007 188 192 203 21039
-2.54375005 -3.13000011 7.15625000 188 192 203 20675
-2.54349995 -3.12975001 7.15850019 188 192 203 21035
-2.54325008 -3.12949991 7.16100025 190 194 203 20460
-2.54250002 -3.12849998 7.16050005 190 194 203 20460
-2.54274988 -3.12875009 7.16200018 190 194 203 20050
-2.54174995 -3.12774992 7.16275024 189 196 204 19535
-2.54174995 -3.12750006 7.16499996 189 196 204 19467
-2.54124999 -3.12700009 7.16699982 189 196 204 20253
-2.54099989 -3.12649989 7.16750002 190 197 205 20321
-2.54075003 -3.12649989 7.17000008 190 197 205 20667
-2.53975010 -3.12525010 7.17150021 190 194 206 20521
-2.53924990 -3.12450004 7.17299986 190 194 206 20114
-2.53900003 -3.12424994 7.17350006 190 194 206 20317
-2.53874993 -3.12400007 7.17600012 189 193 205 20178
-2.53824997 -3.12350011 7.17624998 189 193 205 19910
-2.53850007 -3.12350011 7.17775011 189 193 205 19978
-2.53775001 -3.12275004 7.17749977 189 193 205 20946
-2.53775001 -3.12249994 7.17875004 186 192 204 20875
-2.53699994 -3.12174988 7.17974997 186 192 204 20039
-2.53725004 -3.12174988 7.18149996 186 192 204 19778
-2.53649998 -3.12124991 7.18149996 186 192 204 19396
-2.53649998 -3.12100005 7.18225002 186 193 203 19089
-2.53625011 -3.12074995 7.18324995 186 193 203 18789
-2.53600001 -3.12050009 7.18424988 186 193 203 19089
-2.53574991 -3.11999989 7.18475008 186 193 203 19392
-2.53574991 -3.12024999 7.18650007 186 193 203 20510
-2.53550005 -3.11975002 7.18849993 186 193 203 21464
-2.53524995 -3.11949992 7.18924999 186 193 203 21157
-2.53474998 -3.11899996 7.18949986 186 193 203 21085
-2.53450012 -3.11849999 7.18975019 183 190 200 20375
-2.53399992 -3.11800003 7.19024992 183 190 200 19642
-2.53425002 -3.11849999 7.19274998 183 190 200 19264
-2.53375006 -3.11774993 7.19225025 183 190 200 17132
-2.53375006 -3.11774993 7.19374990 183 190 200 15110
-2.53299999 -3.11675000 7.19299984 181 185 194 11660
-2.53100014 -3.11424994 7.20499992 167 167 179 635
-2.52850008 -3.11124992 7.21124983 96 87 106 546
-2.55299997 -3.14100003 7.12750006 83 71 93 421
-2.54850006 -3.13525009 7.14375019 91 88 109 796
-2.54750013 -3.13424993 7.14550018 141 140 158 1317
-2.54725003 -3.13374996 7.14599991 141 140 158 2107
-2.54675007 -3.13299990 7.15000010 183 185 200 14871
-2.54600000 -3.13225007 7.15124989 183 185 200 18189
-2.54550004 -3.13150001 7.15124989 193 195 208 19667
-2.54500008 -3.13100004 7.15574980 193 195 208 21410
-2.54474998 -3.13074994 7.15649986 188 192 203 20742
-2.54425001 -3.13024998 7.15799999 188 192 203 20885
-2.54400015 -3.12975001 7.15875006 188 192 203 20885
-2.54375005 -3.12925005 7.16050005 190 194 203 20814
-2.54325008 -3.12875009 7.16074991 190 194 203 20460
-2.54274988 -3.12825012 7.16074991 190 194 203 20121
-2.54250002 -3.12774992 7.16275024 189 196 204 19853
-2.54224992 -3.12750006 7.16349983 189 196 204 19221
-2.54224992 -3.12750006 7.16524982 189 196 204 19467
-2.54150009 -3.12674999 7.16475010 189 196 204 19985
-2.54150009 -3.12674999 7.16599989 189 196 204 19853
-2.54075003 -3.12599993 7.16849995 190 197 205 20667
-2.54075003 -3.12549996 7.16949987 190 197 205 20807
-2.54075003 -3.12575006 7.17124987 190 197 205 20878
-2.54049993 -3.12525010 7.17150021 190 194 206 20807
-2.54025006 -3.12500000 7.17250013 190 194 206 21025
-2.53999996 -3.12474990 7.17325020 190 194 206 20803
-2.53950000 -3.12424994 7.17325020 190 194 206 20732
-2.53950000 -3.12424994 7.17500019 190 194 206 20592
-2.53850007 -3.12299991 7.17624998 189 193 205 20178
-2.53824997 -3.12275004 7.17875004 189 193 205 21471
-2.53800011 -3.12225008 7.17924976 186 192 204 21317
-2.53749990 -3.12174988 7.18074989 186 192 204 20514
-2.53749990 -3.12150002 7.18200016 186 192 204 19646
-2.53675008 -3.12074995 7.18174982 186 193 203 19271
-2.53649998 -3.12050009 7.18249989 186 193 203 18971
-2.53600001 -3.11999989 7.18424988 186 193 203 19521
-2.53625011 -3.12024999 7.18650007 186 193 203 20103
-2.53574991 -3.11975002 7.18650007 186 193 203 20585
-2.53550005 -3.11925006 7.18674994 186 193 203 20657
-2.53550005 -3.11925006 7.18825006 186 193 203 20796
-2.53550005 -3.11925006 7.18975019 186 193 203 20375
-2.53474998 -3.11824989 7.19024992 183 190 200 20307
-2.53425002 -3.11774993 7.19099998 183 190 200 19517
-2.53450012 -3.11800003 7.19274998 183 190 200 18550
-2.53425002 -3.11774993 7.19374990 183 190 200 16750
-2.53399992 -3.11750007 7.19449997 183 190 200 14596
-2.53149986 -3.11424994 7.20025015 178 181 190 800
-2.53149986 -3.11424994 7.20200014 167 167 179 750
-2.53100014 -3.11374998 7.20200014 167 167 179 710
-2.53100014 -3.11374998 7.20375013 167 167 179 689
-2.53075004 -3.11350012 7.20450020 167 167 179 635
-2.53049994 -3.11299992 7.20475006 167 167 179 607
-2.52799988 -3.10999990 7.21399975 72 58 81 617
-2.55325007 -3.14050007 7.12650013 83 71 93 378
-2.55224991 -3.13949990 7.13100004 87 77 101 482
-2.54850006 -3.13474989 7.14099979 91 88 109 767
-2.54725003 -3.13325000 7.14599991 141 140 158 3821
-2.54750013 -3.13325000 7.14774990 141 140 158 6782
-2.54675007 -3.13249993 7.14725018 183 185 200 10725
-2.54600000 -3.13150001 7.15100002 183 185 200 18692
-2.54575014 -3.13150001 7.15199995 193 195 208 19478
-2.54575014 -3.13124990 7.15299988 193 195 208 20192
-2.54524994 -3.13074994 7.15499973 193 195 208 20889
-2.54500008 -3.13050008 7.15574980 188 192 203 20742
-2.54474998 -3.13024998 7.15649986 188 192 203 20328
-2.54425001 -3.12949991 7.15625000 188 192 203 20464
-2.54400015 -3.12925005 7.15724993 188 192 203 20603
-2.54400015 -3.12925005 7.15850019 188 192 203 21035
-2.54400015 -3.12925005 7.15999985 190 194 203 21178
-2.54400015 -3.12899995 7.16100025 190 194 203 20814
-2.54349995 -3.12849998 7.16149998 190 194 203 20885
-2.54299998 -3.12800002 7.16275024 190 194 203 20185
-2.54274988 -3.12750006 7.16499996 189 196 204 19221
-2.54250002 -3.12724996 7.16599989 189 196 204 19853
-2.54150009 -3.12599993 7.16725016 190 197 205 20253
-2.54124999 -3.12575006 7.16800022 190 197 205 20596
-2.53999996 -3.12450004 7.17224979 190 194 206 21100
-2.53999996 -3.12424994 7.17299986 190 194 206 20664
-2.53975010 -3.12400007 7.17449999 190 194 206 20521
-2.53924990 -3.12350011 7.17449999 189 193 205 20317
-2.53924990 -3.12350011 7.17600012 189 193 205 20178
-2.53924990 -3.12325001 7.17700005 189 193 205 20450
-2.53874993 -3.12275004 7.17749977 189 193 205 20732
-2.53874993 -3.12275004 7.17875004 189 193 205 21471
-2.53824997 -3.12225008 7.18050003 186 192 204 20942
-2.53800011 -3.12174988 7.18074989 186 192 204 20589
-2.53775001 -3.12150002 7.18149996 186 192 204 19842
-2.53749990 -3.12124991 7.18225002 186 192 204 19089
-2.53725004 -3.12100005 7.18324995 186 193 203 19089
-2.53675008 -3.11999989 7.18300009 186 193 203 19271
-2.53649998 -3.11999989 7.18424988 186 193 203 19521
-2.53649998 -3.11999989 7.18550014 186 193 203 19839
-2.53600001 -3.11925006 7.18550014 186 193 203 20171
-2.53574991 -3.11925006 7.18650007 186 193 203 20725
-2.53574991 -3.11925006 7.18800020 186 193 203 21160
-2.53550005 -3.11875010 7.18875027 186 193 203 20939
-2.53550005 -3.11875010 7.18975019 186 193 203 20307
-2.53500009 -3.11800003 7.19124985 183 190 200 19703
-2.53450012 -3.11750007 7.19124985 183 190 200 18964
-2.53450012 -3.11750007 7.19299984 183 190 200 18000
-2.53450012 -3.11750007 7.19449997 183 190 200 16207
-2.53375006 -3.11649990 7.19474983 181 185 194 11203
-2.53075004 -3.11275005 7.20400000 167 167 179 592
-2.55150008 -3.13800001 7.13024998 87 77 101 539
-2.54949999 -3.13525009 7.13899994 87 82 104 660
-2.54775000 -3.13325000 7.14699984 141 140 158 6382
-2.54750013 -3.13275003 7.14774990 183 185 200 10028
-2.54624987 -3.13150001 7.15049982 183 185 200 19046
-2.54600000 -3.13100004 7.15100002 193 195 208 19353
-2.54600000 -3.13124990 7.15275002 193 195 208 20192
-2.54600000 -3.13100004 7.15374994 193 195 208 20607
-2.54524994 -3.13024998 7.15600014 188 192 203 20464
-2.54500008 -3.12975001 7.15675020 188 192 203 20742
-2.54449987 -3.12925005 7.15675020 188 192 203 20603
-2.54400015 -3.12875009 7.15700006 188 192 203 20817
-2.54425001 -3.12899995 7.15950012 188 192 203 20885
-2.54400015 -3.12875009 7.15974998 190 194 203 21107
-2.54349995 -3.12800002 7.15974998 190 194 203 20957
-2.54375005 -3.12849998 7.16225004 190 194 203 21253
-2.54325008 -3.12774992 7.16375017 189 196 204 20389
-2.54325008 -3.12750006 7.16475010 189 196 204 19985
-2.54224992 -3.12649989 7.16349983 189 196 204 20257
-2.54274988 -3.12700009 7.16625023 189 196 204 20253
-2.54150009 -3.12575006 7.16625023 190 197 205 20525
-2.54174995 -3.12599993 7.16825008 190 197 205 20321
-2.54174995 -3.12575006 7.16925001 190 197 205 20807
-2.54099989 -3.12500000 7.16900015 190 197 205 21325
-2.54075003 -3.12474990 7.16975021 190 197 205 21946
-2.54099989 -3.12500000 7.17150021 190 194 206 21246
-2.54075003 -3.12474990 7.17275000 190 194 206 21475
-2.54025006 -3.12400007 7.17275000 190 194 206 20592
-2.53999996 -3.12374997 7.17449999 190 194 206 19910
-2.53975010 -3.12350011 7.17574978 189 193 205 19910
-2.53900003 -3.12249994 7.17799997 189 193 205 21242
-2.53874993 -3.12225008 7.17875004 189 193 205 21092
-2.53850007 -3.12174988 7.18050003 186 192 204 21239
-2.53800011 -3.12100005 7.18050003 186 192 204 20450
-2.53800011 -3.12124991 7.18225002 186 192 204 20660
-2.53725004 -3.12024999 7.18424988 186 193 203 20039
-2.53675008 -3.11975002 7.18449974 186 193 203 19842
-2.53649998 -3.11949992 7.18550014 186 193 203 20239
-2.53625011 -3.11899996 7.18575001 186 193 203 20585
-2.53574991 -3.11849999 7.18924999 186 193 203 20582
-2.53524995 -3.11800003 7.18900013 186 193 203 20375
-2.53524995 -3.11800003 7.19075012 183 190 200 19642
-2.53474998 -3.11724997 7.19075012 183 190 200 19264
-2.53450012 -3.11700010 7.19150019 183 190 200 18553
-2.53425002 -3.11649990 7.19175005 183 190 200 17375
-2.53324986 -3.11549997 7.19799995 181 185 194 3392
-2.53250003 -3.11424994 7.19850016 178 181 190 1439
-2.53200006 -3.11374998 7.20174980 167 167 179 803
-2.53174996 -3.11374998 7.20450020 167 167 179 671
-2.55275011 -3.13875008 7.13075018 89 77 101 532
-2.55200005 -3.13800001 7.13175011 89 77 101 542
-2.55200005 -3.13774991 7.13425016 91 81 105 567
-2.54799986 -3.13299990 7.14499998 160 157 176 3328
-2.54775000 -3.13249993 7.14825010 191 190 206 13096
-2.54750013 -3.13249993 7.14949989 191 190 206 16360
-2.54675007 -3.13150001 7.15024996 191 190 206 19046
-2.54649997 -3.13124990 7.15124989 191 190 206 19728
-2.54624987 -3.13074994 7.15299988 187 189 202 20746
-2.54624987 -3.13074994 7.15425014 187 189 202 20603
-2.54575014 -3.13024998 7.15474987 187 189 202 20603
-2.54524994 -3.12949991 7.15450001 187 191 202 20532
-2.54550004 -3.12975001 7.15649986 187 191 202 20889
-2.54500008 -3.12949991 7.15724993 187 191 202 20396
-2.54449987 -3.12849998 7.15675020 187 191 202 20464
-2.54425001 -3.12849998 7.15925026 193 197 206 21035
-2.54425001 -3.12849998 7.16074991 193 197 206 20957
-2.54375005 -3.12800002 7.16100025 193 197 206 21253
-2.54375005 -3.12774992 7.16200018 193 197 206 20885
-2.54349995 -3.12724996 7.16249990 193 197 206 20739
-2.54325008 -3.12700009 7.16324997 191 198 206 20117
-2.54299998 -3.12674999 7.16424990 191 198 206 20528
-2.54224992 -3.12575006 7.16774988 188 195 203 20596
-2.54150009 -3.12500000 7.16750002 188 195 203 20735
-2.54150009 -3.12500000 7.16874981 188 195 203 21100
-2.54174995 -3.12525010 7.17075014 188 195 203 21707
-2.54099989 -3.12424994 7.17150021 189 193 204 21321
-2.54099989 -3.12424994 7.17275000 189 193 204 20453
-2.54025006 -3.12350011 7.17275000 189 193 204 19589
-2.53975010 -3.12275004 7.17675018 188 192 203 20664
-2.53900003 -3.12199998 7.17799997 188 192 203 21396
-2.53924990 -3.12199998 7.17974997 187 191 202 21317
-2.53824997 -3.12100005 7.17875004 187 191 202 21242
-2.53874993 -3.12150002 7.18149996 187 191 202 20446
-2.53824997 -3.12100005 7.18149996 187 191 202 20660
-2.53775001 -3.12024999 7.18274975 187 191 200 20107
-2.53749990 -3.11999989 7.18499994 187 191 200 19839
-2.53699994 -3.11949992 7.18550014 187 191 200 20378
-2.53625011 -3.11849999 7.18599987 186 190 199 21239
-2.53600001 -3.11824989 7.18674994 186 190 199 20939
-2.53625011 -3.11849999 7.18900013 186 190 199 20653
-2.53550005 -3.11774993 7.19000006 183 187 196 20239
-2.53524995 -3.11724997 7.19050026 183 187 196 19328
-2.53500009 -3.11700010 7.19150019 183 187 196 19203
-2.53474998 -3.11675000 7.19225025 183 187 196 18553
-2.53425002 -3.11625004 7.19374990 179 182 191 15742
-2.53425002 -3.11599994 7.19500017 179 182 191 13250
-2.53324986 -3.11474991 7.19775009 177 177 187 3307
-2.53299999 -3.11474991 7.19899988 177 177 187 2107
-2.53299999 -3.11450005 7.20050001 177 177 187 1339
-2.53125000 -3.11225009 7.20825005 149 142 158 642
-2.53025007 -3.11100006 7.20975018 108 99 118 610
-2.52874994 -3.10949993 7.21350002 79 65 88 628
-2.55049992 -3.13549995 7.13999987 91 83 106 714
-2.54850006 -3.13299990 7.14499998 160 157 176 3114
-2.54850006 -3.13299990 7.14624977 160 157 176 5703
-2.54750013 -3.13175011 7.14774990 191 190 206 15850
-2.54775000 -3.13199997 7.14974976 191 190 206 17707
-2.54725003 -3.13150001 7.15000010 191 190 206 18867
-2.54725003 -3.13150001 7.15149975 191 190 206 19414
-2.54675007 -3.13100004 7.15175009 187 189 202 20057
-2.54624987 -3.13050008 7.15199995 187 189 202 20467
-2.54649997 -3.13074994 7.15399981 187 189 202 20603
-2.54624987 -3.13024998 7.15450001 187 189 202 20260
-2.54600000 -3.13000011 7.15499973 187 189 202 20532
-2.54550004 -3.12925005 7.15799999 187 191 202 20603
-2.54474998 -3.12849998 7.15750027 187 191 202 20328
-2.54474998 -3.12849998 7.15899992 187 191 202 20528
-2.54474998 -3.12849998 7.16025019 193 197 206 20957
-2.54400015 -3.12750006 7.16125011 193 197 206 20600
-2.54400015 -3.12774992 7.16300011 193 197 206 20671
-2.54375005 -3.12724996 7.16349983 191 198 206 20460
-2.54325008 -3.12649989 7.16475010 191 198 206 20185
-2.54299998 -3.12649989 7.16599989 191 198 206 20253
-2.54274988 -3.12599993 7.16650009 191 198 206 20667
-2.54200006 -3.12525010 7.16599989 188 195 203 20525
-2.54224992 -3.12549996 7.16800022 188 195 203 20457
-2.54174995 -3.12474990 7.16800022 188 195 203 21028
-2.54174995 -3.12450004 7.17049980 188 195 203 21400
-2.54124999 -3.12400007 7.17199993 189 193 204 20182
-2.54075003 -3.12350011 7.17250013 189 193 204 19275
-2.54075003 -3.12374997 7.17425013 189 193 204 19464
-2.53999996 -3.12249994 7.17325020 189 193 204 19914
-2.54049993 -3.12325001 7.17574978 188 192 203 20450
-2.53975010 -3.12225008 7.17649984 188 192 203 20517
-2.53950000 -3.12199998 7.17749977 188 192 203 20803
-2.53924990 -3.12150002 7.17824984 188 192 203 21167
-2.53900003 -3.12150002 7.17924976 187 191 202 21092
-2.53874993 -3.12100005 7.17950010 187 191 202 20728
-2.53824997 -3.12024999 7.18099976 187 191 202 20175
-2.53824997 -3.12050009 7.18274975 187 191 200 20242
-2.53800011 -3.11999989 7.18324995 187 191 200 19907
-2.53749990 -3.11975002 7.18400002 187 191 200 19907
-2.53725004 -3.11925006 7.18449974 187 191 200 20242
-2.53649998 -3.11824989 7.18674994 186 190 199 20867
-2.53649998 -3.11824989 7.18825006 186 190 199 20510
-2.53625011 -3.11824989 7.18924999 186 190 199 20582
-2.53625011 -3.11800003 7.19024992 186 190 199 20235
-2.53574991 -3.11750007 7.19050026 183 187 196 20100
-2.53474998 -3.11599994 7.19325018 183 187 196 17082
-2.53425002 -3.11575007 7.19525003 179 182 191 13192
-2.53375006 -3.11500001 7.19649982 179 182 191 7921
-2.53324986 -3.11424994 7.20074987 177 177 187 1342
-2.53275013 -3.11374998 7.20100021 177 177 187 1007
-2.55025005 -3.13474989 7.13850021 91 83 106 707
-2.54949999 -3.13374996 7.14449978 160 157 176 1435
-2.54874992 -3.13275003 7.14674997 160 157 176 8839
-2.54824996 -3.13225007 7.14725018 160 157 176 12660
-2.54775000 -3.13150001 7.14725018 191 190 206 15407
-2.54775000 -3.13150001 7.14825010 191 190 206 17814
-2.54775000 -3.13150001 7.14974976 191 190 206 19046
-2.54775000 -3.13150001 7.15100002 191 190 206 19228
-2.54675007 -3.13050008 7.15024996 191 190 206 19732
-2.54675007 -3.13024998 7.15149975 187 189 202 20332
-2.54675007 -3.13024998 7.15275002 187 189 202 20125
-2.54649997 -3.13000011 7.15374994 187 189 202 20464
-2.54624987 -3.12975001 7.15450001 187 189 202 20607
-2.54624987 -3.12975001 7.15600014 187 191 202 20125
-2.54575014 -3.12925005 7.15625000 187 191 202 20192
-2.54575014 -3.12899995 7.15750027 187 191 202 20396
-2.54550004 -3.12899995 7.15824986 187 191 202 20392
-2.54550004 -3.12875009 7.15950012 187 191 202 20675
-2.54474998 -3.12800002 7.15925026 193 197 206 20603
-2.54474998 -3.12774992 7.16149998 193 197 206 20671
-2.54400015 -3.12700009 7.16100025 193 197 206 21107
-2.54425001 -3.12724996 7.16349983 193 197 206 20739
-2.54400015 -3.12674999 7.16375017 191 198 206 20957
-2.54349995 -3.12649989 7.16450024 191 198 206 20117
-2.54325008 -3.12625003 7.16524982 191 198 206 20050
-2.54299998 -3.12575006 7.16725016 191 198 206 20389
-2.54250002 -3.12525010 7.16725016 188 195 203 20389
-2.54200006 -3.12450004 7.16699982 188 195 203 20185
-2.54224992 -3.12500000 7.16975021 188 195 203 20453
-2.54174995 -3.12424994 7.17124987 188 195 203 20385
-2.54099989 -3.12325001 7.17325020 189 193 204 19214
-2.54049993 -3.12249994 7.17299986 189 193 204 19275
-2.54025006 -3.12225008 7.17374992 188 192 203 19914
-2.53999996 -3.12199998 7.17600012 188 192 203 20450
-2.53975010 -3.12174988 7.17675018 188 192 203 20875
-2.53975010 -3.12174988 7.17824984 188 192 203 21021
-2.53950000 -3.12150002 7.17924976 187 191 202 21164
-2.53950000 -3.12124991 7.18050003 187 191 202 20728
-2.53874993 -3.12074995 7.18025017 187 191 202 20589
-2.53874993 -3.12050009 7.18149996 187 191 202 20446
-2.53824997 -3.11999989 7.18149996 187 191 202 20514
-2.53775001 -3.11925006 7.18300009 187 191 200 20446
-2.53749990 -3.11899996 7.18349981 187 191 200 20800
-2.53725004 -3.11875010 7.18599987 187 191 200 21089
-2.53699994 -3.11824989 7.18650007 186 190 199 20657
-2.53675008 -3.11800003 7.18725014 186 190 199 20103
-2.53625011 -3.11750007 7.18750000 186 190 199 20375
-2.53675008 -3.11800003 7.19050026 186 190 199 20582
-2.53600001 -3.11724997 7.18975019 183 187 196 20103
-2.53550005 -3.11649990 7.19250011 183 187 196 18553
-2.53500009 -3.11599994 7.19299984 183 187 196 17735
-2.53474998 -3.11549997 7.19325018 179 182 191 16517
-2.53474998 -3.11549997 7.19474983 179 182 191 15225
-2.53425002 -3.11500001 7.19624996 179 182 191 10707
-2.53375006 -3.11450005 7.19675016 179 182 191 7889
-2.53324986 -3.11374998 7.20249987 177 177 187 939
-2.53125000 -3.11124992 7.20975018 149 142 158 571
-2.55399990 -3.13875008 7.12725019 84 72 94 453
-2.55275011 -3.13724995 7.13075018 89 77 101 542
-2.55200005 -3.13625002 7.13325024 91 81 105 571
-2.55174994 -3.13599992 7.13399982 91 81 105 578
-2.55224991 -3.13649988 7.13625002 91 81 105 585
-2.54900002 -3.13249993 7.14349985 160 157 176 2546
-2.54900002 -3.13249993 7.14599991 160 157 176 8578
-2.54874992 -3.13225007 7.14699984 160 157 176 12475
-2.54850006 -3.13199997 7.14799976 191 190 206 15521
-2.54775000 -3.13124990 7.14874983 191 190 206 19110
-2.54775000 -3.13100004 7.14974976 191 190 206 19228
-2.54750013 -3.13050008 7.15049982 191 190 206 19667
-2.54725003 -3.13050008 7.15124989 187 189 202 20535
-2.54675007 -3.13000011 7.15175009 187 189 202 20467
-2.54675007 -3.12975001 7.15299988 187 189 202 19992
-2.54699993 -3.13000011 7.15499973 187 189 202 20192
-2.54649997 -3.12925005 7.15474987 187 189 202 19728
-2.54649997 -3.12925005 7.15625000 187 191 202 19664
-2.54600000 -3.12875009 7.15649986 187 191 202 19728
-2.54575014 -3.12875009 7.15899992 187 191 202 20675
-2.54500008 -3.12774992 7.15824986 187 191 202 20603
-2.54500008 -3.12774992 7.15974998 193 197 206 20325
-2.54449987 -3.12700009 7.15974998 193 197 206 20325
-2.54449987 -3.12700009 7.16125011 193 197 206 21107
-2.54400015 -3.12649989 7.16125011 193 197 206 21253
-2.54449987 -3.12674999 7.16375017 191 198 206 20671
-2.54375005 -3.12625003 7.16375017 191 198 206 20185
-2.54325008 -3.12549996 7.16349983 191 198 206 20050
-2.54325008 -3.12549996 7.16650009 191 198 206 20321
-2.54250002 -3.12450004 7.16725016 188 195 203 20117
-2.54250002 -3.12474990 7.16874981 188 195 203 20046
-2.54224992 -3.12424994 7.16900015 188 195 203 20953
-2.54224992 -3.12400007 7.17175007 189 193 204 20521
-2.54174995 -3.12350011 7.17224979 189 193 204 20114
-2.54150009 -3.12325001 7.17275000 189 193 204 19096
-2.54099989 -3.12275004 7.17325020 189 193 204 19400
-2.54124999 -3.12299991 7.17500019 189 193 204 19910
-2.54049993 -3.12199998 7.17425013 188 192 203 20182
-2.54075003 -3.12249994 7.17675018 188 192 203 20382
-2.54049993 -3.12199998 7.17724991 188 192 203 20517
-2.53975010 -3.12100005 7.17649984 188 192 203 20664
-2.53975010 -3.12100005 7.17950010 187 191 202 20871
-2.53924990 -3.12050009 7.17974997 187 191 202 20382
-2.53874993 -3.11999989 7.17999983 187 191 202 20589
-2.53874993 -3.11975002 7.18099976 187 191 202 20517
-2.53824997 -3.11949992 7.18274975 187 191 200 20514
-2.53850007 -3.11949992 7.18475008 187 191 200 20585
-2.53775001 -3.11875010 7.18449974 187 191 200 21314
-2.53800011 -3.11875010 7.18599987 187 191 200 21314
-2.53725004 -3.11800003 7.18575001 186 190 199 20446
-2.53749990 -3.11824989 7.18774986 186 190 199 20582
-2.53725004 -3.11800003 7.18849993 186 190 199 20307
-2.53675008 -3.11750007 7.18900013 186 190 199 20721
-2.53625011 -3.11700010 7.18900013 186 190 199 20307
-2.53600001 -3.11675000 7.18975019 183 187 196 20035
-2.53600001 -3.11649990 7.19099998 183 187 196 19328
-2.53550005 -3.11599994 7.19124985 183 187 196 19203
-2.53450012 -3.11450005 7.19525003 179 182 191 13078
-2.53174996 -3.11124992 7.20825005 149 142 158 635
-2.53125000 -3.11074996 7.20825005 149 142 158 596
-2.53100014 -3.11050010 7.20924997 149 142 158 607
-2.53025007 -3.10949993 7.21274996 108 99 118 682
-2.52925014 -3.10824990 7.21474981 79 65 88 503
-2.55474997 -3.13925004 7.12800026 84 72 94 417
-2.55425000 -3.13849998 7.12774992 84 72 94 460
-2.55375004 -3.13774991 7.12750006 89 77 101 510
-2.55375004 -3.13774991 7.12900019 89 77 101 571
-2.55349994 -3.13750005 7.13000011 89 77 101 532
-2.55325007 -3.13724995 7.13075018 89 77 101 567
-2.55049992 -3.13400006 7.13899994 111 106 128 803
-2.54999995 -3.13325000 7.14475012 160 157 176 2235
-2.54925013 -3.13249993 7.14550018 160 157 176 7975
-2.54874992 -3.13175011 7.14550018 160 157 176 11864
-2.54850006 -3.13150001 7.14650011 160 157 176 15364
-2.54850006 -3.13124990 7.14725018 191 190 206 17553
-2.54850006 -3.13150001 7.14925003 191 190 206 19110
-2.54775000 -3.13050008 7.14849997 191 190 206 19357
-2.54775000 -3.13050008 7.15000010 191 190 206 19732
-2.54799986 -3.13074994 7.15199995 191 190 206 20125
-2.54750013 -3.13000011 7.15199995 187 189 202 20535
-2.54699993 -3.12949991 7.15199995 187 189 202 20467
-2.54725003 -3.12975001 7.15399981 187 189 202 20125
-2.54699993 -3.12949991 7.15474987 187 189 202 19796
-2.54675007 -3.12925005 7.15574980 187 191 202 20125
-2.54649997 -3.12875009 7.15625000 187 191 202 19475
-2.54550004 -3.12774992 7.15649986 187 191 202 20675
-2.54550004 -3.12774992 7.15824986 187 191 202 21035
-2.54575014 -3.12800002 7.15999985 193 197 206 20600
-2.54550004 -3.12774992 7.16125011 193 197 206 20739
-2.54425001 -3.12625003 7.16225004 193 197 206 21032
-2.54425001 -3.12625003 7.16349983 191 198 206 20600
-2.54400015 -3.12599993 7.16424990 191 198 206 20321
-2.54400015 -3.12575006 7.16550016 191 198 206 20185
-2.54349995 -3.12525010 7.16524982 191 198 206 20739
-2.54325008 -3.12500000 7.16625023 191 198 206 20253
-2.54299998 -3.12474990 7.16725016 188 195 203 20321
-2.54299998 -3.12474990 7.16874981 188 195 203 19914
-2.54299998 -3.12474990 7.17000008 188 195 203 20385
-2.54224992 -3.12350011 7.16900015 188 195 203 20667
-2.54250002 -3.12400007 7.17124987 188 195 203 20385
-2.54224992 -3.12374997 7.17224979 189 193 204 20046
-2.54200006 -3.12325001 7.17275000 189 193 204 18857
-2.54174995 -3.12299991 7.17350006 189 193 204 19032
-2.54124999 -3.12249994 7.17399979 189 193 204 19714
-2.54099989 -3.12225008 7.17474985 188 192 203 19782
-2.54099989 -3.12225008 7.17624998 188 192 203 20042
-2.54075003 -3.12199998 7.17700005 188 192 203 20660
-2.53999996 -3.12100005 7.17624998 188 192 203 20732
-2.53975010 -3.12050009 7.17974997 187 191 202 20517
-2.53924990 -3.12024999 7.18025017 187 191 202 20107
-2.53950000 -3.12050009 7.18225002 187 191 202 20446
-2.53900003 -3.11949992 7.18174982 187 191 202 20175
-2.53874993 -3.11949992 7.18424988 187 191 200 20725
-2.53850007 -3.11925006 7.18524981 187 191 200 21089
-2.53800011 -3.11849999 7.18524981 187 191 200 21160
-2.53775001 -3.11824989 7.18599987 187 191 200 20796
-2.53775001 -3.11824989 7.18750000 186 190 199 20510
-2.53749990 -3.11774993 7.18774986 186 190 199 20725
-2.53699994 -3.11724997 7.18774986 186 190 199 20796
-2.53725004 -3.11750007 7.19000006 186 190 199 20375
-2.53649998 -3.11675000 7.18975019 183 187 196 20035
-2.53625011 -3.11625004 7.19000006 183 187 196 19707
-2.53625011 -3.11625004 7.19299984 183 187 196 19082
-2.53524995 -3.11525011 7.19350004 179 182 191 17275
-2.53500009 -3.11474991 7.19400024 179 182 191 16517
-2.53474998 -3.11450005 7.19474983 179 182 191 14960
-2.53450012 -3.11424994 7.19549990 179 182 191 12721
-2.53450012 -3.11400008 7.19675016 179 182 191 9964
-2.53299999 -3.11249995 7.20475006 161 159 172 689
-2.55425000 -3.13800001 7.12925005 87 78 99 517
-2.55250001 -3.13599992 7.13299990 90 82 103 492
-2.54974985 -3.13249993 7.14550018 172 171 187 7371
-2.54949999 -3.13199997 7.14725018 172 171 187 15250
-2.54850006 -3.13100004 7.14799976 190 192 205 18753
-2.54850006 -3.13100004 7.14925003 190 192 205 19542
-2.54824996 -3.13050008 7.15000010 190 192 205 19928
-2.54775000 -3.13000011 7.15124989 183 185 197 20467
-2.54725003 -3.12949991 7.15175009 183 185 197 20400
-2.54750013 -3.12949991 7.15324974 183 185 197 20192
-2.54649997 -3.12849998 7.15374994 183 185 197 19860
-2.54675007 -3.12875009 7.15574980 186 190 199 19664
-2.54649997 -3.12825012 7.15625000 186 190 199 20125
-2.54649997 -3.12825012 7.15775013 186 190 199 20257
-2.54600000 -3.12750006 7.15775013 186 190 199 20603
-2.54550004 -3.12724996 7.15799999 186 190 199 20464
-2.54550004 -3.12724996 7.15950012 194 198 207 20528
-2.54550004 -3.12724996 7.16125011 194 198 207 20600
-2.54550004 -3.12700009 7.16225004 194 198 207 20392
-2.54474998 -3.12625003 7.16324997 190 197 203 20810
-2.54425001 -3.12575006 7.16349983 190 197 203 20885
-2.54400015 -3.12549996 7.16575003 190 197 203 20185
-2.54349995 -3.12474990 7.16575003 190 197 203 20185
-2.54325008 -3.12450004 7.16774988 187 194 200 19853
-2.54325008 -3.12424994 7.16874981 187 194 200 19914
-2.54325008 -3.12424994 7.17049980 187 194 200 19914
-2.54274988 -3.12400007 7.17100000 187 194 200 20667
-2.54224992 -3.12325001 7.17075014 189 193 202 19717
-2.54200006 -3.12275004 7.17124987 189 193 202 19464
-2.54174995 -3.12275004 7.17250013 189 193 202 18857
-2.54150009 -3.12225008 7.17325020 189 193 202 19400
-2.54174995 -3.12249994 7.17474985 189 193 202 19585
-2.54150009 -3.12225008 7.17574978 188 192 201 19650
-2.54099989 -3.12150002 7.17724991 188 192 201 20110
-2.54049993 -3.12100005 7.17749977 188 192 201 20589
-2.54075003 -3.12124991 7.17924976 188 192 201 20450
-2.54025006 -3.12074995 7.17950010 186 190 199 20382
-2.53924990 -3.11949992 7.18149996 186 190 199 20310
-2.53950000 -3.11975002 7.18300009 185 189 198 19710
-2.53924990 -3.11925006 7.18375015 185 189 198 20175
-2.53900003 -3.11899996 7.18449974 185 189 198 20514
-2.53850007 -3.11849999 7.18650007 185 189 198 20939
-2.53824997 -3.11800003 7.18674994 183 187 196 21017
-2.53775001 -3.11750007 7.18674994 183 187 196 20939
-2.53749990 -3.11750007 7.18800020 183 187 196 21089
-2.53749990 -3.11724997 7.18924999 183 187 196 20721
-2.53699994 -3.11649990 7.18924999 183 187 196 20307
-2.53649998 -3.11625004 7.18975019 180 183 192 19839
-2.53649998 -3.11599994 7.19075012 180 183 192 19900
-2.53625011 -3.11575007 7.19274998 180 183 192 18496
-2.53550005 -3.11474991 7.19700003 175 178 187 14996
-2.53425002 -3.11325002 7.20200014 173 173 183 1621
-2.53174996 -3.11025000 7.20975018 148 141 157 639
-2.53025007 -3.10850000 7.21600008 84 70 93 435
-2.55150008 -3.13400006 7.13749981 91 86 106 703
-2.55025005 -3.13249993 7.14400005 172 171 187 3778
-2.54974985 -3.13175011 7.14825010 172 171 187 17553
-2.54949999 -3.13150001 7.14900017 190 192 205 18810
-2.54874992 -3.13074994 7.14874983 190 192 205 19667
-2.54874992 -3.13050008 7.14949989 190 192 205 19667
-2.54824996 -3.13000011 7.15000010 190 192 205 20607
-2.54824996 -3.13000011 7.15124989 190 192 205 20264
-2.54750013 -3.12899995 7.15324974 183 185 197 20396
-2.54699993 -3.12849998 7.15499973 186 190 199 19664
-2.54675007 -3.12800002 7.15574980 186 190 199 19796
-2.54699993 -3.12825012 7.15775013 186 190 199 20189
-2.54649997 -3.12800002 7.15824986 186 190 199 20460
-2.54624987 -3.12774992 7.15899992 186 190 199 20392
-2.54624987 -3.12750006 7.15999985 194 198 207 19989
-2.54575014 -3.12700009 7.16025019 194 198 207 20189
-2.54550004 -3.12674999 7.16100025 194 198 207 20189
-2.54500008 -3.12599993 7.16100025 194 198 207 21107
-2.54500008 -3.12599993 7.16249990 194 198 207 21178
-2.54500008 -3.12599993 7.16424990 190 197 203 20739
-2.54449987 -3.12549996 7.16424990 190 197 203 20457
-2.54449987 -3.12525010 7.16524982 190 197 203 20457
-2.54425001 -3.12525010 7.16625023 190 197 203 19985
-2.54400015 -3.12450004 7.16650009 190 197 203 19985
-2.54349995 -3.12424994 7.16699982 187 194 200 19853
-2.54325008 -3.12400007 7.16800022 187 194 200 19914
-2.54349995 -3.12424994 7.17000008 187 194 200 20182
-2.54274988 -3.12325001 7.16949987 187 194 200 20182
-2.54250002 -3.12299991 7.17124987 189 193 202 19982
-2.54250002 -3.12299991 7.17299986 189 193 202 19785
-2.54200006 -3.12249994 7.17474985 189 193 202 19464
-2.54049993 -3.12050009 7.17624998 188 192 201 20314
-2.54099989 -3.12100005 7.17899990 188 192 201 20175
-2.54049993 -3.12050009 7.17899990 186 190 199 20382
-2.54025006 -3.11999989 7.17950010 186 190 199 20382
-2.53975010 -3.11949992 7.17950010 186 190 199 20110
-2.53975010 -3.11949992 7.18099976 186 190 199 19975
-2.53950000 -3.11925006 7.18174982 186 190 199 19975
-2.53924990 -3.11899996 7.18274975 185 189 198 19842
-2.53950000 -3.11925006 7.18449974 185 189 198 20035
-2.53850007 -3.11800003 7.18375015 185 189 198 20871
-2.53850007 -3.11800003 7.18499994 185 189 198 20942
-2.53874993 -3.11824989 7.18725014 185 189 198 20867
-2.53850007 -3.11800003 7.18774986 183 187 196 21235
-2.53800011 -3.11724997 7.18774986 183 187 196 21310
-2.53775001 -3.11700010 7.18875027 183 187 196 20442
-2.53775001 -3.11724997 7.19024992 183 187 196 20375
-2.53725004 -3.11649990 7.19150019 180 183 192 19967
-2.53649998 -3.11575007 7.19124985 180 183 192 19203
-2.53574991 -3.11474991 7.19325018 175 178 187 17735
-2.53574991 -3.11450005 7.19449997 175 178 187 17132
-2.53550005 -3.11424994 7.19675016 175 178 187 13957
-2.53500009 -3.11350012 7.19675016 175 178 187 11775
-2.53324986 -3.11174989 7.20249987 161 157 171 817
-2.53275013 -3.11100006 7.20400000 161 157 171 657
-2.55425000 -3.13674998 7.12874985 87 78 99 539
-2.55250001 -3.13450003 7.13525009 91 86 106 603
-2.55174994 -3.13374996 7.13775015 91 86 106 757
-2.55150008 -3.13350010 7.14150000 127 124 143 882
-2.55075002 -3.13249993 7.14200020 127 124 143 1878
-2.55049992 -3.13225007 7.14475012 172 171 187 6535
-2.54974985 -3.13124990 7.14799976 190 192 205 18932
-2.54949999 -3.13100004 7.14900017 190 192 205 19603
-2.54874992 -3.13000011 7.14825010 190 192 205 19800
-2.54900002 -3.13024998 7.15149975 190 192 205 20746
-2.54824996 -3.12949991 7.15149975 183 185 197 20678
-2.54850006 -3.12975001 7.15324974 183 185 197 20464
-2.54799986 -3.12899995 7.15299988 183 185 197 20260
-2.54750013 -3.12849998 7.15324974 183 185 197 19925
-2.54750013 -3.12849998 7.15499973 183 185 197 19539
-2.54725003 -3.12800002 7.15675020 186 190 199 20053
-2.54675007 -3.12750006 7.15700006 186 190 199 20125
-2.54600000 -3.12674999 7.15799999 186 190 199 20260
-2.54624987 -3.12700009 7.15999985 194 198 207 20392
-2.54600000 -3.12649989 7.16050005 194 198 207 20528
-2.54575014 -3.12625003 7.16149998 194 198 207 20528
-2.54524994 -3.12575006 7.16300011 190 197 203 21253
-2.54524994 -3.12575006 7.16450024 190 197 203 20600
-2.54474998 -3.12525010 7.16475010 190 197 203 20525
-2.54400015 -3.12424994 7.16550016 190 197 203 20321
-2.54400015 -3.12424994 7.16699982 187 194 200 20457
-2.54349995 -3.12350011 7.16674995 187 194 200 19789
-2.54375005 -3.12374997 7.16874981 187 194 200 19914
-2.54349995 -3.12350011 7.16949987 187 194 200 20250
-2.54325008 -3.12325001 7.17075014 187 194 200 20114
-2.54299998 -3.12299991 7.17124987 189 193 202 19785
-2.54200006 -3.12174988 7.17299986 189 193 202 19717
-2.54224992 -3.12225008 7.17525005 189 193 202 19782
-2.54200006 -3.12174988 7.17574978 188 192 201 19275
-2.54150009 -3.12124991 7.17600012 188 192 201 19910
-2.54099989 -3.12074995 7.17749977 188 192 201 20589
-2.54049993 -3.11999989 7.17899990 186 190 199 20314
-2.54075003 -3.12024999 7.18074989 186 190 199 20446
-2.53999996 -3.11925006 7.18025017 186 190 199 20107
-2.53975010 -3.11899996 7.18099976 186 190 199 20175
-2.53975010 -3.11899996 7.18249989 185 189 198 19646
-2.53924990 -3.11849999 7.18424988 185 189 198 20242
-2.53850007 -3.11750007 7.18475008 185 189 198 20514
-2.53850007 -3.11750007 7.18624973 183 187 196 21389
-2.53824997 -3.11724997 7.18849993 183 187 196 21085
-2.53775001 -3.11649990 7.18975019 183 187 196 20035
-2.53775001 -3.11649990 7.19150019 180 183 192 19703
-2.53675008 -3.11549997 7.19024992 180 183 192 19328
-2.53675008 -3.11525011 7.19124985 180 183 192 18846
-2.53600001 -3.11424994 7.19525003 175 178 187 17525
-2.53600001 -3.11424994 7.19675016 175 178 187 15950
-2.53524995 -3.11350012 7.19649982 175 178 187 14185
-2.53524995 -3.11350012 7.19899988 173 173 183 8646
-2.53375006 -3.11150002 7.20200014 161 157 171 1000
-2.53100014 -3.10824990 7.21350002 114 105 124 642
-2.55474997 -3.13674998 7.13000011 87 78 99 500
-2.55325007 -3.13499999 7.13775015 91 86 106 671
-2.55174994 -3.13325000 7.14074993 127 124 143 957
-2.55150008 -3.13299990 7.14300013 127 124 143 1692
-2.55075002 -3.13199997 7.14225006 127 124 143 3153
-2.55025005 -3.13124990 7.14375019 172 171 187 9303
-2.55049992 -3.13150001 7.14699984 172 171 187 16914
-2.54999995 -3.13100004 7.14849997 190 192 205 19603
-2.54974985 -3.13074994 7.14974976 190 192 205 20128
-2.54925013 -3.13000011 7.15100002 190 192 205 19992
-2.54874992 -3.12949991 7.15124989 190 192 205 20535
-2.54874992 -3.12949991 7.15250015 183 185 197 20964
-2.54850006 -3.12899995 7.15299988 183 185 197 20396
-2.54799986 -3.12875009 7.15350008 183 185 197 20328
-2.54799986 -3.12849998 7.15499973 183 185 197 20057
-2.54775000 -3.12825012 7.15574980 186 190 199 20057
-2.54725003 -3.12750006 7.15549994 186 190 199 20328
-2.54675007 -3.12700009 7.15724993 186 190 199 20532
-2.54649997 -3.12674999 7.15925026 194 198 207 20257
-2.54624987 -3.12625003 7.15999985 194 198 207 20392
-2.54624987 -3.12625003 7.16125011 194 198 207 20528
-2.54575014 -3.12575006 7.16300011 194 198 207 20739
-2.54524994 -3.12525010 7.16300011 190 197 203 20392
-2.54524994 -3.12500000 7.16424990 190 197 203 20321
-2.54500008 -3.12474990 7.16524982 190 197 203 20882
-2.54449987 -3.12424994 7.16550016 190 197 203 19789
-2.54425001 -3.12400007 7.16599989 190 197 203 20253
-2.54449987 -3.12424994 7.16800022 187 194 200 19653
-2.54375005 -3.12325001 7.16750002 187 194 200 19789
-2.54400015 -3.12350011 7.16949987 187 194 200 19403
-2.54349995 -3.12299991 7.17124987 187 194 200 19785
-2.54325008 -3.12275004 7.17224979 189 193 202 20046
-2.54274988 -3.12199998 7.17175007 189 193 202 19914
-2.54224992 -3.12150002 7.17350006 189 193 202 20250
-2.54174995 -3.12074995 7.17474985 188 192 201 19978
-2.54174995 -3.12074995 7.17624998 188 192 201 19910
-2.54174995 -3.12074995 7.17799997 188 192 201 20517
-2.54099989 -3.11999989 7.17724991 188 192 201 20450
-2.54099989 -3.11975002 7.17850018 186 190 199 20042
-2.54025006 -3.11899996 7.17924976 186 190 199 20110
-2.54075003 -3.11949992 7.18225002 186 190 199 19646
-2.53999996 -3.11875010 7.18300009 185 189 198 19521
-2.53999996 -3.11875010 7.18475008 185 189 198 19457
-2.53900003 -3.11774993 7.18375015 185 189 198 20310
-2.53900003 -3.11750007 7.18499994 185 189 198 20657
-2.53924990 -3.11774993 7.18674994 185 189 198 21696
-2.53874993 -3.11724997 7.18699980 183 187 196 21539
-2.53874993 -3.11724997 7.18875027 183 187 196 20653
-2.53850007 -3.11675000 7.18924999 183 187 196 19903
-2.53824997 -3.11675000 7.19024992 183 187 196 19967
-2.53749990 -3.11575007 7.18975019 180 183 192 19578
-2.53675008 -3.11474991 7.19175005 180 183 192 18728
-2.53699994 -3.11525011 7.19400024 180 183 192 18550
-2.53625011 -3.11424994 7.19325018 175 178 187 18328
-2.53625011 -3.11424994 7.19474983 175 178 187 17682
-2.53600001 -3.11400008 7.19549990 175 178 187 17128
-2.53600001 -3.11374998 7.19675016 175 178 187 15992
-2.53574991 -3.11350012 7.19750023 175 178 187 13764
-2.53524995 -3.11275005 7.19750023 173 173 183 10978
-2.53524995 -3.11275005 7.20025015 173 173 183 5346
-2.53450012 -3.11199999 7.20025015 173 173 183 3292
-2.53425002 -3.11174989 7.20225000 161 157 171 1360
-2.53349996 -3.11074996 7.20574999 161 157 171 714
-2.55325007 -3.13450003 7.13474989 90 82 103 628
-2.55299997 -3.13424993 7.13549995 91 86 106 664
-2.55150008 -3.13225007 7.14424992 127 124 143 5600
-2.55100012 -3.13150001 7.14550018 172 171 187 12900
-2.54999995 -3.13050008 7.14900017 190 192 205 20264
-2.54949999 -3.13000011 7.14900017 190 192 205 20128
-2.54925013 -3.12949991 7.14974976 190 192 205 20264
-2.54925013 -3.12949991 7.15250015 183 185 197 20260
-2.54900002 -3.12899995 7.15299988 183 185 197 20260
-2.54850006 -3.12875009 7.15474987 183 185 197 20057
-2.54775000 -3.12774992 7.15425014 183 185 197 19925
-2.54775000 -3.12774992 7.15574980 186 190 199 20464
-2.54750013 -3.12724996 7.15600014 186 190 199 20817
-2.54699993 -3.12674999 7.15799999 186 190 199 20814
-2.54675007 -3.12649989 7.15875006 186 190 199 20742
-2.54675007 -3.12625003 7.15974998 194 198 207 20603
-2.54675007 -3.12649989 7.16149998 194 198 207 20121
-2.54624987 -3.12599993 7.16174984 194 198 207 20257
-2.54600000 -3.12549996 7.16200018 194 198 207 20257
-2.54550004 -3.12500000 7.16225004 190 197 203 20600
-2.54500008 -3.12450004 7.16550016 190 197 203 20050
-2.54500008 -3.12424994 7.16650009 190 197 203 19985
-2.54449987 -3.12374997 7.16699982 187 194 200 19467
-2.54474998 -3.12400007 7.16849995 187 194 200 19653
-2.54425001 -3.12350011 7.16900015 187 194 200 19589
-2.54375005 -3.12299991 7.16925001 187 194 200 19532
-2.54400015 -3.12299991 7.17100000 187 194 200 19785
-2.54325008 -3.12225008 7.17075014 189 193 202 19342
-2.54349995 -3.12249994 7.17250013 189 193 202 19785
-2.54325008 -3.12225008 7.17325020 189 193 202 19785
-2.54250002 -3.12150002 7.17299986 189 193 202 19914
-2.54224992 -3.12100005 7.17350006 189 193 202 20114
-2.54250002 -3.12124991 7.17549992 188 192 201 19846
-2.54174995 -3.12024999 7.17500019 188 192 201 20110
-2.54174995 -3.12024999 7.17624998 188 192 201 20042
-2.54150009 -3.11999989 7.17700005 188 192 201 20246
-2.54150009 -3.11999989 7.17850018 188 192 201 20382
-2.54150009 -3.11999989 7.18025017 186 190 199 20446
-2.54049993 -3.11899996 7.18050003 186 190 199 20175
-2.54025006 -3.11849999 7.18074989 186 190 199 20107
-2.54025006 -3.11849999 7.18225002 185 189 198 19710
-2.53999996 -3.11800003 7.18449974 185 189 198 19903
-2.53950000 -3.11774993 7.18475008 185 189 198 20103
-2.53924990 -3.11724997 7.18550014 185 189 198 20942
-2.53924990 -3.11724997 7.18650007 183 187 196 20867
-2.53874993 -3.11675000 7.18674994 183 187 196 20725
-2.53824997 -3.11625004 7.19000006 183 187 196 19775
-2.53800011 -3.11575007 7.19050026 180 183 192 20100
-2.53749990 -3.11525011 7.19075012 180 183 192 19775
-2.53725004 -3.11500001 7.19175005 180 183 192 19389
-2.53725004 -3.11474991 7.19400024 180 183 192 19203
-2.53649998 -3.11374998 7.19500017 175 178 187 17735
-2.53600001 -3.11325002 7.19675016 175 178 187 15910
-2.53550005 -3.11275005 7.19675016 175 178 187 13517
-2.53524995 -3.11225009 7.20149994 173 173 183 3042
-2.53375006 -3.11050010 7.20324993 161 157 171 817
-2.55500007 -3.13599992 7.12925005 90 78 100 492
-2.55450010 -3.13549995 7.13399982 91 82 103 575
-2.55174994 -3.13199997 7.14349985 137 132 152 5589
-2.55174994 -3.13199997 7.14499998 179 176 193 9010
-2.55100012 -3.13100004 7.14575005 179 176 193 16192
-2.55049992 -3.13074994 7.14750004 179 176 193 20128
-2.55049992 -3.13050008 7.14874983 194 193 207 20060
-2.55025005 -3.13024998 7.14974976 194 193 207 20332
-2.54974985 -3.12949991 7.15075016 194 193 207 20467
-2.54949999 -3.12949991 7.15199995 194 193 207 20057
-2.54874992 -3.12825012 7.15374994 184 186 199 19796
-2.54824996 -3.12774992 7.15399981 184 186 199 19600
-2.54824996 -3.12750006 7.15499973 188 192 203 19925
-2.54750013 -3.12700009 7.15625000 188 192 203 20817
-2.54699993 -3.12625003 7.15775013 188 192 203 20960
-2.54675007 -3.12599993 7.15974998 192 196 205 19921
-2.54649997 -3.12575006 7.16074991 192 196 205 19857
-2.54649997 -3.12549996 7.16349983 192 196 205 20389
-2.54550004 -3.12450004 7.16225004 186 193 199 20189
-2.54550004 -3.12450004 7.16400003 186 193 199 20321
-2.54550004 -3.12424994 7.16499996 186 193 199 20185
-2.54474998 -3.12350011 7.16599989 186 193 199 19403
-2.54474998 -3.12350011 7.16725016 186 193 199 19278
-2.54400015 -3.12249994 7.16949987 186 193 199 19403
-2.54425001 -3.12275004 7.17150021 186 193 199 18917
-2.54349995 -3.12174988 7.17100000 189 194 200 19589
-2.54274988 -3.12100005 7.17350006 189 194 200 20114
-2.54250002 -3.12074995 7.17425013 188 193 199 20250
-2.54250002 -3.12074995 7.17574978 188 193 199 20042
-2.54224992 -3.12024999 7.17624998 188 193 199 19650
-2.54174995 -3.11975002 7.17649984 188 193 199 19585
-2.54150009 -3.11949992 7.17899990 186 191 197 20178
-2.54099989 -3.11899996 7.17875004 186 191 197 20517
-2.54099989 -3.11899996 7.18174982 186 191 197 19907
-2.54049993 -3.11849999 7.18349981 184 189 195 19907
-2.54025006 -3.11800003 7.18375015 184 189 195 20107
-2.53975010 -3.11724997 7.18524981 184 189 195 20310
-2.53950000 -3.11700010 7.18599987 184 189 195 20657
-2.53924990 -3.11649990 7.18650007 182 185 194 20657
-2.53900003 -3.11625004 7.18750000 182 185 194 19839
-2.53900003 -3.11649990 7.18924999 182 185 194 19517
-2.53850007 -3.11575007 7.18924999 182 185 194 19707
-2.53800011 -3.11525011 7.18924999 177 180 189 19839
-2.53850007 -3.11575007 7.19175005 177 180 189 20371
-2.53725004 -3.11424994 7.19274998 177 180 189 19967
-2.53699994 -3.11400008 7.19549990 174 174 186 18725
-2.53649998 -3.11350012 7.19525003 174 174 186 17735
-2.53675008 -3.11350012 7.19724989 174 174 186 17225
-2.53625011 -3.11299992 7.19724989 174 174 186 15864
-2.53574991 -3.11225009 7.19724989 170 168 181 13517
-2.53500009 -3.11150002 7.19974995 170 168 181 4807
-2.53399992 -3.11050010 7.20450020 162 158 173 853
-2.53399992 -3.11025000 7.20725012 139 132 148 692
-2.53250003 -3.10850000 7.20874977 109 100 119 721
-2.55474997 -3.13525009 7.13175011 91 82 103 550
-2.55325007 -3.13350010 7.13625002 94 86 107 710
