//X Y Z R G B Intensity
-2.54274988 -3.11350012 7.19024992 181 182 186 20375
-2.54200006 -3.11275005 7.18975019 181 180 186 20939
-2.54224992 -3.11275005 7.19150019 181 180 186 21460
-2.54174995 -3.11249995 7.19175005 181 180 186 21085
-2.54124999 -3.11174989 7.19175005 181 180 186 20864
-2.54124999 -3.11174989 7.19325018 178 177 183 20935
-2.54075003 -3.11100006 7.19474983 178 177 183 20507
-2.53999996 -3.11025000 7.19700003 168 165 174 20028
-2.53950000 -3.10975003 7.19724989 168 165 174 19832
-2.53924990 -3.10949993 7.19824982 168 165 174 19571
-2.53924990 -3.10925007 7.19899988 168 165 174 19078
-2.53900003 -3.10899997 7.20050001 168 165 174 18210
-2.53924990 -3.10925007 7.20225000 156 150 160 17678
-2.53900003 -3.10875010 7.20275021 156 150 160 15739
-2.53874993 -3.10850000 7.20375013 156 150 160 13985
-2.53850007 -3.10824990 7.20424986 156 150 160 11221
-2.53800011 -3.10774994 7.20475006 156 150 160 7917
-2.53749990 -3.10700011 7.20574999 128 120 133 3203
-2.53699994 -3.10649991 7.20900011 128 120 133 1025
-2.55625010 -3.12975001 7.13850021 101 99 113 7224
-2.55550003 -3.12875009 7.14200020 101 99 113 18996
-2.55550003 -3.12849998 7.14300013 153 153 165 18642
-2.55524993 -3.12825012 7.14375019 153 153 165 18696
-2.55500007 -3.12800002 7.14449978 153 153 165 18871
-2.55474997 -3.12774992 7.14550018 153 153 165 19171
-2.55450010 -3.12750006 7.14650011 153 153 165 19667
-2.55450010 -3.12724996 7.14750004 177 177 189 19542
-2.55375004 -3.12649989 7.14825010 177 177 189 20128
-2.55349994 -3.12625003 7.14925003 177 177 189 20400
-2.55349994 -3.12625003 7.15049982 187 187 197 19864
-2.55325007 -3.12575006 7.15124989 187 187 197 19925
-2.55275011 -3.12525010 7.15149975 187 187 197 19542
-2.55275011 -3.12525010 7.15299988 187 187 197 19860
-2.55250001 -3.12500000 7.15399981 187 187 197 19600
-2.55200005 -3.12450004 7.15399981 183 183 191 19600
-2.55150008 -3.12400007 7.15700006 183 183 191 20464
-2.55150008 -3.12374997 7.15799999 183 183 191 20325
-2.55150008 -3.12374997 7.15950012 186 187 192 20742
-2.55124998 -3.12325001 7.15999985 186 187 192 20528
-2.55100012 -3.12325001 7.16125011 186 187 192 20528
-2.55025005 -3.12225008 7.16324997 192 193 197 20321
-2.54949999 -3.12150002 7.16300011 192 193 197 20957
-2.54949999 -3.12150002 7.16450024 192 193 197 21250
-2.54949999 -3.12150002 7.16575003 192 193 197 20882
-2.54925013 -3.12100005 7.16750002 190 190 192 20253
-2.54850006 -3.11999989 7.16699982 190 190 192 19853
-2.54874992 -3.12024999 7.16900015 190 190 192 19914
-2.54850006 -3.11999989 7.16975021 190 190 192 20114
-2.54775000 -3.11925006 7.17250013 186 186 188 20453
-2.54699993 -3.11824989 7.17150021 186 186 188 20667
-2.54725003 -3.11849999 7.17350006 186 186 188 21025
-2.54699993 -3.11824989 7.17449999 187 188 192 21242
-2.54649997 -3.11774993 7.17474985 187 188 192 21625
-2.54600000 -3.11700010 7.17749977 187 188 192 20875
-2.54600000 -3.11700010 7.17899990 187 191 194 20517
-2.54524994 -3.11599994 7.17799997 187 191 194 19846
-2.54524994 -3.11625004 7.17999983 187 191 194 19975
-2.54500008 -3.11575007 7.18025017 187 191 194 20242
-2.54500008 -3.11575007 7.18200016 187 191 194 20039
-2.54425001 -3.11500001 7.18149996 184 188 191 20242
-2.54425001 -3.11500001 7.18324995 184 188 191 19975
-2.54375005 -3.11424994 7.18300009 184 188 191 20446
-2.54325008 -3.11374998 7.18599987 181 182 186 19332
-2.54299998 -3.11325002 7.18774986 181 182 186 19389
-2.54250002 -3.11275005 7.18949986 181 180 186 20792
-2.54200006 -3.11199999 7.19225025 181 180 186 21014
-2.54174995 -3.11174989 7.19325018 181 180 186 21460
-2.54099989 -3.11100006 7.19274998 178 177 183 20792
-2.54099989 -3.11074996 7.19374990 178 177 183 20864
-2.54049993 -3.11025000 7.19549990 178 177 183 20032
-2.54049993 -3.11025000 7.19700003 178 177 183 19832
-2.54025006 -3.10975003 7.19750023 168 165 174 19514
-2.53975010 -3.10925007 7.19775009 168 165 174 19896
-2.53950000 -3.10899997 7.19875002 168 165 174 19767
-2.53924990 -3.10875010 7.20074987 156 150 160 18664
-2.53924990 -3.10899997 7.20275021 156 150 160 17221
-2.53900003 -3.10850000 7.20300007 156 150 160 15417
-2.53874993 -3.10824990 7.20424986 145 142 153 13546
-2.53850007 -3.10774994 7.20424986 145 142 153 10285
-2.53675008 -3.10575008 7.20975018 80 72 87 810
-2.55749989 -3.13050008 7.13700008 84 82 96 1771
-2.55699992 -3.13000011 7.13724995 84 82 96 3696
-2.55699992 -3.13000011 7.13899994 84 82 96 6582
-2.55649996 -3.12949991 7.14025021 93 91 105 13725
-2.55625010 -3.12899995 7.14200020 93 91 105 18135
-2.55574989 -3.12849998 7.14249992 131 130 144 18642
-2.55524993 -3.12800002 7.14274979 131 130 144 18814
-2.55524993 -3.12774992 7.14400005 131 130 144 18639
-2.55524993 -3.12800002 7.14550018 131 130 144 18696
-2.55500007 -3.12750006 7.14599991 131 130 144 19357
-2.55450010 -3.12674999 7.14750004 166 166 178 20196
-2.55399990 -3.12625003 7.14774990 166 166 178 20196
-2.55399990 -3.12599993 7.14874983 166 166 178 20196
-2.55349994 -3.12575006 7.14925003 166 166 178 20060
-2.55325007 -3.12549996 7.15024996 187 187 199 19603
-2.55299997 -3.12525010 7.15224981 187 187 199 19167
-2.55275011 -3.12474990 7.15250015 187 187 199 19042
-2.55250001 -3.12424994 7.15324974 187 187 199 19167
-2.55275011 -3.12474990 7.15600014 185 185 195 19350
-2.55224991 -3.12424994 7.15600014 185 185 195 19600
-2.55224991 -3.12424994 7.15750027 185 185 195 19989
-2.55174994 -3.12350011 7.15750027 185 185 195 20328
-2.55200005 -3.12374997 7.15925026 186 186 194 20460
-2.55100012 -3.12275004 7.15824986 186 186 194 20603
-2.55100012 -3.12275004 7.15974998 186 186 194 20325
-2.55075002 -3.12225008 7.15999985 186 186 194 20528
-2.54999995 -3.12124991 7.16249990 190 191 196 20528
-2.54999995 -3.12124991 7.16400003 190 191 196 21103
-2.54974985 -3.12124991 7.16499996 190 191 196 20810
-2.54999995 -3.12124991 7.16650009 190 191 196 20457
-2.54925013 -3.12050009 7.16625023 190 189 194 20389
-2.54900002 -3.12024999 7.16699982 190 189 194 20050
-2.54925013 -3.12024999 7.16874981 190 189 194 19717
-2.54874992 -3.11975002 7.16900015 190 189 194 19850
-2.54874992 -3.11975002 7.17049980 190 189 194 20046
-2.54799986 -3.11899996 7.17000008 184 185 189 20114
-2.54799986 -3.11875010 7.17100000 184 185 189 20317
-2.54750013 -3.11849999 7.17175007 184 185 189 20453
-2.54750013 -3.11824989 7.17275000 184 185 189 20046
-2.54750013 -3.11824989 7.17399979 184 185 189 21167
-2.54699993 -3.11774993 7.17449999 183 187 190 21096
-2.54675007 -3.11750007 7.17525005 183 187 190 21025
-2.54624987 -3.11700010 7.17549992 183 187 190 21396
-2.54624987 -3.11675000 7.17675018 183 187 190 21167
-2.54600000 -3.11649990 7.17749977 184 188 191 20178
-2.54575014 -3.11625004 7.17824984 184 188 191 20110
-2.54575014 -3.11599994 7.17950010 184 188 191 20175
-2.54500008 -3.11525011 7.17924976 184 188 191 19910
-2.54524994 -3.11549997 7.18125010 184 188 191 20175
-2.54524994 -3.11549997 7.18249989 183 187 190 19842
-2.54449987 -3.11474991 7.18225002 183 187 190 19710
-2.54449987 -3.11474991 7.18349981 183 187 190 20107
-2.54425001 -3.11450005 7.18424988 183 187 190 20514
-2.54425001 -3.11450005 7.18575001 183 187 190 20307
-2.54325008 -3.11325002 7.18750000 178 181 186 19332
-2.54325008 -3.11325002 7.18875027 178 181 186 19839
-2.54299998 -3.11275005 7.18900013 178 181 186 20171
-2.54250002 -3.11199999 7.18924999 179 180 185 20721
-2.54250002 -3.11225009 7.19124985 179 180 185 20510
-2.54224992 -3.11174989 7.19150019 179 180 185 20439
-2.54224992 -3.11174989 7.19299984 179 180 185 20935
-2.54200006 -3.11150002 7.19374990 175 174 182 20792
-2.54150009 -3.11100006 7.19425011 175 174 182 20935
-2.54124999 -3.11074996 7.19624996 175 174 182 20300
-2.54049993 -3.10975003 7.19549990 175 174 182 19967
-2.54075003 -3.10999990 7.19750023 161 158 167 19767
-2.53999996 -3.10925007 7.19700003 161 158 167 19896
-2.53999996 -3.10899997 7.19850016 161 158 167 19700
-2.53999996 -3.10899997 7.20125008 161 158 167 18900
-2.53975010 -3.10875010 7.20225000 145 142 153 18778
-2.53900003 -3.10774994 7.20149994 145 142 153 17678
-2.53950000 -3.10824990 7.20400000 145 142 153 16117
-2.53874993 -3.10750008 7.20375013 145 142 153 13575
-2.53850007 -3.10724998 7.20450020 145 142 153 10800
-2.53824997 -3.10675001 7.20499992 106 100 112 7400
-2.53775001 -3.10649991 7.20574999 106 100 112 4585
-2.55949998 -3.13225007 7.13224983 85 81 96 464
-2.55924988 -3.13225007 7.13350010 85 81 96 600
-2.55850005 -3.13124990 7.13700008 84 82 96 1139
-2.55725002 -3.12949991 7.13899994 93 91 105 9967
-2.55675006 -3.12925005 7.13975000 93 91 105 13821
-2.55699992 -3.12949991 7.14150000 93 91 105 16192
-2.55625010 -3.12849998 7.14125013 93 91 105 18139
-2.55625010 -3.12849998 7.14225006 93 91 105 18414
-2.55625010 -3.12849998 7.14400005 131 130 144 19050
-2.55574989 -3.12800002 7.14400005 131 130 144 18932
-2.55574989 -3.12774992 7.14499998 131 130 144 19050
-2.55524993 -3.12724996 7.14524984 131 130 144 19171
-2.55500007 -3.12674999 7.14575005 131 130 144 19357
-2.55474997 -3.12674999 7.14699984 166 166 178 20128
-2.55450010 -3.12649989 7.14774990 166 166 178 20750
-2.55425000 -3.12599993 7.14825010 166 166 178 20400
-2.55375004 -3.12549996 7.15000010 187 187 199 19289
-2.55325007 -3.12474990 7.15149975 187 187 199 19228
-2.55349994 -3.12500000 7.15324974 187 187 199 19600
-2.55275011 -3.12424994 7.15600014 185 185 195 19860
-2.55224991 -3.12374997 7.15899992 185 185 195 20528
-2.55200005 -3.12299991 7.16050005 186 186 194 20671
-2.55100012 -3.12199998 7.15950012 186 186 194 20814
-2.55124998 -3.12225008 7.16149998 186 186 194 20885
-2.55075002 -3.12174988 7.16149998 186 186 194 20392
-2.55049992 -3.12150002 7.16375017 190 191 196 20882
-2.54974985 -3.12050009 7.16349983 190 191 196 21175
-2.54999995 -3.12100005 7.16575003 190 191 196 21175
-2.54999995 -3.12074995 7.16674995 190 189 194 20810
-2.54974985 -3.12050009 7.16725016 190 189 194 20253
-2.54949999 -3.11999989 7.16800022 190 189 194 20182
-2.54900002 -3.11949992 7.17000008 190 189 194 20046
-2.54874992 -3.11925006 7.17075014 184 185 189 20046
-2.54850006 -3.11875010 7.17100000 184 185 189 19785
-2.54799986 -3.11824989 7.17150021 184 185 189 20250
-2.54799986 -3.11824989 7.17425013 184 185 189 20732
-2.54725003 -3.11750007 7.17525005 183 187 190 21471
-2.54675007 -3.11675000 7.17500019 183 187 190 21396
-2.54699993 -3.11700010 7.17724991 183 187 190 21021
-2.54675007 -3.11675000 7.17775011 183 187 190 20450
-2.54649997 -3.11675000 7.17924976 184 188 191 20039
-2.54575014 -3.11575007 7.17824984 184 188 191 19650
-2.54575014 -3.11549997 7.17950010 184 188 191 19907
-2.54550004 -3.11525011 7.18025017 184 188 191 20589
-2.54550004 -3.11525011 7.18174982 184 188 191 20175
-2.54474998 -3.11424994 7.18225002 183 187 190 19778
-2.54500008 -3.11474991 7.18475008 183 187 190 20103
-2.54449987 -3.11400008 7.18499994 183 187 190 20242
-2.54425001 -3.11374998 7.18699980 178 181 186 19392
-2.54349995 -3.11275005 7.18624973 178 181 186 19207
-2.54375005 -3.11325002 7.18875027 178 181 186 19642
-2.54325008 -3.11275005 7.18900013 178 181 186 19707
-2.54250002 -3.11150002 7.18924999 179 180 185 20582
-2.54274988 -3.11174989 7.19150019 179 180 185 20792
-2.54200006 -3.11100006 7.19274998 179 180 185 20507
-2.54174995 -3.11074996 7.19325018 175 174 182 20653
-2.54150009 -3.11025000 7.19400024 175 174 182 20507
-2.54150009 -3.11025000 7.19525003 175 174 182 19900
-2.54099989 -3.10975003 7.19549990 175 174 182 19835
-2.54075003 -3.10949993 7.19799995 161 158 167 20300
-2.54025006 -3.10899997 7.19799995 161 158 167 20367
-2.54025006 -3.10875010 7.19925022 161 158 167 20164
-2.53950000 -3.10800004 7.20025015 145 142 153 19260
-2.53924990 -3.10774994 7.20100021 145 142 153 18435
-2.53924990 -3.10750008 7.20524979 145 142 153 13071
-2.53800011 -3.10625005 7.20475006 106 100 112 6614
-2.53850007 -3.10675001 7.20749998 106 100 112 4035
-2.55774999 -3.12975001 7.13649988 84 82 96 3153
-2.55774999 -3.12975001 7.13899994 84 82 96 9542
-2.55699992 -3.12899995 7.13875008 93 91 105 13071
-2.55725002 -3.12925005 7.14099979 93 91 105 15807
-2.55675006 -3.12849998 7.14200020 93 91 105 18525
-2.55625010 -3.12800002 7.14225006 131 130 144 19175
-2.55524993 -3.12674999 7.14524984 131 130 144 18578
-2.55524993 -3.12674999 7.14699984 166 166 178 19357
-2.55500007 -3.12649989 7.14774990 166 166 178 20610
-2.55474997 -3.12599993 7.14949989 166 166 178 20607
-2.55375004 -3.12474990 7.15100002 187 187 199 19228
-2.55399990 -3.12525010 7.15374994 187 187 199 19728
-2.55325007 -3.12424994 7.15399981 187 187 199 19410
-2.55275011 -3.12374997 7.15574980 185 185 195 19992
-2.55275011 -3.12350011 7.15700006 185 185 195 20121
-2.55250001 -3.12325001 7.15775013 185 185 195 20189
-2.55250001 -3.12325001 7.15925026 186 186 194 20814
-2.55200005 -3.12249994 7.15899992 186 186 194 20742
-2.55174994 -3.12225008 7.15974998 186 186 194 20460
-2.55124998 -3.12174988 7.15974998 186 186 194 20325
-2.55075002 -3.12124991 7.16324997 190 191 196 20810
-2.55075002 -3.12100005 7.16450024 190 191 196 20321
-2.54999995 -3.12024999 7.16550016 190 191 196 21175
-2.55025005 -3.12050009 7.16725016 190 189 194 20525
-2.54974985 -3.11975002 7.16725016 190 189 194 20185
-2.54949999 -3.11975002 7.16849995 190 189 194 20046
-2.54925013 -3.11949992 7.16925001 190 189 194 19785
-2.54874992 -3.11849999 7.16874981 190 189 194 19785
-2.54850006 -3.11849999 7.17000008 184 185 189 19717
-2.54824996 -3.11800003 7.17049980 184 185 189 19982
-2.54824996 -3.11824989 7.17224979 184 185 189 19785
-2.54799986 -3.11800003 7.17299986 184 185 189 20521
-2.54750013 -3.11724997 7.17299986 184 185 189 21025
-2.54725003 -3.11675000 7.17474985 183 187 190 21167
-2.54675007 -3.11625004 7.17500019 183 187 190 20950
-2.54524994 -3.11424994 7.18074989 183 187 190 19778
-2.54524994 -3.11450005 7.18249989 183 187 190 19710
-2.54500008 -3.11424994 7.18375015 183 187 190 19582
-2.54474998 -3.11374998 7.18550014 183 187 190 20103
-2.54400015 -3.11299992 7.18524981 178 181 186 19842
-2.54400015 -3.11299992 7.18650007 178 181 186 19775
-2.54400015 -3.11299992 7.18800020 178 181 186 19903
-2.54349995 -3.11225009 7.18800020 178 181 186 19707
-2.54375005 -3.11249995 7.19000006 178 181 186 20032
-2.54299998 -3.11174989 7.18924999 179 180 185 20307
-2.54250002 -3.11124992 7.19124985 179 180 185 20307
-2.54224992 -3.11074996 7.19175005 179 180 185 19835
-2.54250002 -3.11100006 7.19500017 175 174 182 20303
-2.54200006 -3.11050010 7.19549990 175 174 182 20439
-2.54150009 -3.10999990 7.19700003 175 174 182 20164
-2.54099989 -3.10925007 7.19700003 161 158 167 20578
-2.54124999 -3.10949993 7.19899988 161 158 167 20232
-2.54075003 -3.10875010 7.19875002 161 158 167 20503
-2.54025006 -3.10824990 7.19899988 161 158 167 19832
-2.54025006 -3.10824990 7.20025015 161 158 167 18900
-2.53999996 -3.10800004 7.20125008 145 142 153 19257
-2.53950000 -3.10750008 7.20300007 145 142 153 17832
-2.53850007 -3.10625005 7.20475006 106 100 112 9753
-2.53775001 -3.10524988 7.20800018 106 100 112 1553
-2.55850005 -3.13024998 7.13574982 84 82 96 1528
-2.55774999 -3.12925005 7.13775015 84 82 96 9289
-2.55774999 -3.12925005 7.13899994 93 91 105 12960
-2.55774999 -3.12899995 7.14050007 93 91 105 15810
-2.55699992 -3.12825012 7.13999987 93 91 105 18192
-2.55699992 -3.12825012 7.14150000 93 91 105 19050
-2.55675006 -3.12800002 7.14225006 93 91 105 19417
-2.55675006 -3.12800002 7.14400005 131 130 144 19232
-2.55649996 -3.12750006 7.14424992 131 130 144 18992
-2.55599999 -3.12700009 7.14449978 131 130 144 18467
-2.55524993 -3.12625003 7.14699984 166 166 178 20196
-2.55524993 -3.12625003 7.14849997 166 166 178 20892
-2.55474997 -3.12549996 7.14799976 166 166 178 20471
-2.55474997 -3.12575006 7.15000010 166 166 178 19732
-2.55474997 -3.12549996 7.15124989 187 187 199 19353
-2.55399990 -3.12474990 7.15075016 187 187 199 18989
-2.55399990 -3.12450004 7.15175009 187 187 199 19110
-2.55399990 -3.12474990 7.15374994 187 187 199 19539
-2.55399990 -3.12450004 7.15474987 187 187 199 19285
-2.55325007 -3.12374997 7.15574980 185 185 195 19796
-2.55325007 -3.12350011 7.15675020 185 185 195 19725
-2.55299997 -3.12350011 7.15799999 185 185 195 20189
-2.55224991 -3.12225008 7.15850019 186 186 194 20464
-2.55174994 -3.12199998 7.15875006 186 186 194 20189
-2.55150008 -3.12150002 7.16249990 186 186 194 20325
-2.55100012 -3.12100005 7.16275024 190 191 196 20460
-2.55075002 -3.12074995 7.16475010 190 191 196 21478
-2.55025005 -3.11999989 7.16725016 190 189 194 20525
-2.54974985 -3.11949992 7.16800022 190 189 194 20321
-2.54925013 -3.11875010 7.16750002 190 189 194 20389
-2.54949999 -3.11899996 7.16975021 190 189 194 19717
-2.54949999 -3.11899996 7.17100000 184 185 189 19589
-2.54900002 -3.11849999 7.17150021 184 185 189 19850
-2.54850006 -3.11774993 7.17124987 184 185 189 19914
-2.54850006 -3.11800003 7.17299986 184 185 189 20385
-2.54799986 -3.11724997 7.17275000 184 185 189 20664
-2.54824996 -3.11750007 7.17474985 183 187 190 20732
-2.54775000 -3.11700010 7.17525005 183 187 190 20803
-2.54725003 -3.11649990 7.17700005 183 187 190 20314
-2.54725003 -3.11625004 7.17799997 183 187 190 19714
-2.54675007 -3.11575007 7.17799997 184 188 191 19978
-2.54624987 -3.11500001 7.17799997 184 188 191 19650
-2.54600000 -3.11474991 7.18025017 184 188 191 20660
-2.54600000 -3.11474991 7.18174982 184 188 191 19778
-2.54550004 -3.11424994 7.18349981 183 187 190 19907
-2.54524994 -3.11400008 7.18424988 183 187 190 20175
-2.54474998 -3.11325002 7.18424988 183 187 190 20175
-2.54449987 -3.11275005 7.18599987 178 181 186 19839
-2.54400015 -3.11225009 7.18624973 178 181 186 19903
-2.54375005 -3.11225009 7.18750000 178 181 186 19775
-2.54375005 -3.11199999 7.18825006 178 181 186 19775
-2.54349995 -3.11174989 7.18949986 179 180 185 20035
-2.54349995 -3.11174989 7.19099998 179 180 185 20235
-2.54299998 -3.11124992 7.19099998 179 180 185 19900
-2.54274988 -3.11100006 7.19199991 179 180 185 19639
-2.54250002 -3.11050010 7.19250011 179 180 185 19575
-2.54250002 -3.11050010 7.19400024 175 174 182 20167
-2.54224992 -3.10999990 7.19575024 175 174 182 20789
-2.54174995 -3.10975003 7.19624996 175 174 182 20717
-2.54150009 -3.10925007 7.19675016 175 174 182 20650
-2.54150009 -3.10925007 7.19850016 161 158 167 20300
-2.54099989 -3.10875010 7.19824982 161 158 167 20232
-2.54049993 -3.10800004 7.19974995 161 158 167 19510
-2.54049993 -3.10800004 7.20149994 145 142 153 19382
-2.53999996 -3.10750008 7.20324993 145 142 153 19196
-2.53975010 -3.10724998 7.20400000 145 142 153 17625
-2.53924990 -3.10649991 7.20375013 145 142 153 15417
-2.53900003 -3.10599995 7.20424986 106 100 112 12557
-2.55949998 -3.13074994 7.13525009 91 84 102 932
-2.55774999 -3.12875009 7.13775015 83 79 96 12203
-2.55824995 -3.12925005 7.14025021 86 83 100 15175
-2.55800009 -3.12899995 7.14150000 86 83 100 17817
-2.55774999 -3.12875009 7.14200020 86 83 100 18696
-2.55699992 -3.12774992 7.14274979 107 106 122 19482
-2.55649996 -3.12724996 7.14449978 107 106 122 18639
-2.55599999 -3.12649989 7.14725018 150 149 163 19928
-2.55550003 -3.12575006 7.14699984 150 149 163 20539
-2.55550003 -3.12575006 7.14849997 150 149 163 20821
-2.55500007 -3.12500000 7.15000010 150 149 163 19228
-2.55474997 -3.12500000 7.15100002 182 182 194 18989
-2.55425000 -3.12424994 7.15224981 182 182 194 19228
-2.55399990 -3.12400007 7.15324974 182 182 194 19289
-2.55349994 -3.12350011 7.15350008 182 182 194 19228
-2.55349994 -3.12325001 7.15450001 187 187 197 19475
-2.55325007 -3.12299991 7.15549994 187 187 197 19664
-2.55325007 -3.12325001 7.15700006 187 187 197 20121
-2.55325007 -3.12299991 7.15824986 187 187 197 20392
-2.55250001 -3.12225008 7.15750027 186 186 194 20603
-2.55224991 -3.12199998 7.15850019 186 186 194 20189
-2.55224991 -3.12174988 7.15974998 186 186 194 20121
-2.55200005 -3.12174988 7.16100025 186 186 194 19857
-2.55200005 -3.12150002 7.16200018 186 186 194 20189
-2.55150008 -3.12124991 7.16249990 187 188 193 20257
-2.55150008 -3.12100005 7.16400003 187 188 193 20321
-2.54999995 -3.11925006 7.16550016 187 186 192 20882
-2.55049992 -3.11975002 7.16800022 187 186 192 20182
-2.54974985 -3.11899996 7.16774988 187 186 192 19985
-2.54949999 -3.11849999 7.16825008 187 186 192 20046
-2.54974985 -3.11899996 7.17049980 187 186 192 19982
-2.54925013 -3.11824989 7.17049980 186 185 191 19653
-2.54874992 -3.11750007 7.17199993 186 185 191 19982
-2.54900002 -3.11774993 7.17374992 186 185 191 20385
-2.54824996 -3.11700010 7.17350006 186 185 191 20250
-2.54775000 -3.11649990 7.17374992 181 182 187 20521
-2.54750013 -3.11599994 7.17549992 181 182 187 20042
-2.54725003 -3.11599994 7.17675018 181 182 187 19978
-2.54750013 -3.11599994 7.17824984 181 184 189 19978
-2.54675007 -3.11525011 7.17824984 181 184 189 19782
-2.54649997 -3.11474991 7.17999983 181 184 189 20310
-2.54624987 -3.11450005 7.18099976 181 184 189 19842
-2.54575014 -3.11400008 7.18125010 180 183 188 19525
-2.54600000 -3.11400008 7.18424988 180 183 188 19971
-2.54524994 -3.11350012 7.18575001 180 183 188 20103
-2.54474998 -3.11275005 7.18550014 178 178 186 20171
-2.54500008 -3.11299992 7.18774986 178 178 186 19775
-2.54449987 -3.11249995 7.18774986 178 178 186 19775
-2.54400015 -3.11174989 7.18750000 178 178 186 19642
-2.54400015 -3.11174989 7.19050026 176 175 183 20375
-2.54349995 -3.11100006 7.19199991 176 175 183 19639
-2.54325008 -3.11100006 7.19325018 176 175 183 19385
-2.54299998 -3.11050010 7.19350004 169 167 178 19703
-2.54250002 -3.10999990 7.19374990 169 167 178 20032
-2.54200006 -3.10949993 7.19549990 169 167 178 20032
-2.54200006 -3.10925007 7.19824982 151 148 159 20789
-2.54150009 -3.10875010 7.19850016 151 148 159 20232
-2.54099989 -3.10800004 7.19799995 151 148 159 20028
-2.54075003 -3.10774994 7.19875002 151 148 159 19635
-2.54049993 -3.10774994 7.19999981 151 148 159 19700
-2.54049993 -3.10774994 7.20149994 134 128 142 19892
-2.54049993 -3.10750008 7.20275021 134 128 142 20364
-2.54025006 -3.10700011 7.20324993 134 128 142 19892
-2.53975010 -3.10649991 7.20324993 134 128 142 17475
-2.53950000 -3.10649991 7.20450020 134 128 142 15103
-2.55924988 -3.13000011 7.13775015 83 79 96 4942
-2.55874991 -3.12925005 7.13749981 83 79 96 8567
-2.55850005 -3.12899995 7.13850021 83 79 96 12375
-2.55850005 -3.12875009 7.13950014 86 83 100 15525
-2.55800009 -3.12825012 7.13950014 86 83 100 17357
-2.55749989 -3.12774992 7.14025021 86 83 100 18814
-2.55774999 -3.12800002 7.14200020 86 83 100 19671
-2.55749989 -3.12774992 7.14274979 86 83 100 19803
-2.55675006 -3.12674999 7.14475012 107 106 122 18467
-2.55675006 -3.12674999 7.14624977 107 106 122 19110
-2.55599999 -3.12575006 7.14550018 107 106 122 19357
-2.55599999 -3.12599993 7.14725018 150 149 163 20196
-2.55574989 -3.12549996 7.14774990 150 149 163 20471
-2.55550003 -3.12525010 7.15000010 150 149 163 19800
-2.55500007 -3.12474990 7.15024996 182 182 194 18989
-2.55450010 -3.12424994 7.15049982 182 182 194 18692
-2.55450010 -3.12400007 7.15149975 182 182 194 19110
-2.55450010 -3.12424994 7.15350008 182 182 194 19228
-2.55399990 -3.12350011 7.15350008 182 182 194 19289
-2.55425000 -3.12400007 7.15574980 187 187 197 19539
-2.55375004 -3.12299991 7.15525007 187 187 197 19728
-2.55349994 -3.12299991 7.15799999 187 187 197 20257
-2.55325007 -3.12275004 7.15875006 187 187 197 20325
-2.55275011 -3.12174988 7.15974998 186 186 194 19857
-2.55200005 -3.12124991 7.15950012 186 186 194 20189
-2.55250001 -3.12150002 7.16200018 186 186 194 20257
-2.55174994 -3.12074995 7.16149998 186 186 194 20671
-2.55150008 -3.12024999 7.16174984 187 188 193 20257
-2.55174994 -3.12074995 7.16450024 187 188 193 20457
-2.54949999 -3.11800003 7.16825008 187 186 192 20810
-2.54874992 -3.11724997 7.17075014 186 185 191 20114
-2.54824996 -3.11649990 7.17325020 181 182 187 19785
-2.54799986 -3.11625004 7.17425013 181 182 187 20521
-2.54799986 -3.11599994 7.17549992 181 182 187 20110
-2.54799986 -3.11625004 7.17724991 181 182 187 20110
-2.54750013 -3.11549997 7.17700005 181 182 187 19585
-2.54675007 -3.11450005 7.18099976 181 184 189 19975
-2.54624987 -3.11400008 7.18099976 181 184 189 19646
-2.54600000 -3.11350012 7.18300009 180 183 188 19025
-2.54575014 -3.11325002 7.18524981 180 183 188 19971
-2.54550004 -3.11299992 7.18624973 178 178 186 20171
-2.54524994 -3.11275005 7.18699980 178 178 186 20103
-2.54425001 -3.11150002 7.18849993 178 178 186 19578
-2.54449987 -3.11174989 7.19050026 176 175 183 20235
-2.54425001 -3.11150002 7.19099998 176 175 183 19967
-2.54325008 -3.11050010 7.19325018 176 175 183 18903
-2.54274988 -3.10975003 7.19299984 169 167 178 19835
-2.54250002 -3.10949993 7.19374990 169 167 178 20792
-2.54274988 -3.10975003 7.19600010 169 167 178 20371
-2.54250002 -3.10925007 7.19649982 169 167 178 20789
-2.54200006 -3.10875010 7.19824982 151 148 159 20717
-2.54174995 -3.10850000 7.19925022 151 148 159 20164
-2.54174995 -3.10850000 7.20025015 151 148 159 20232
-2.54124999 -3.10800004 7.20050001 151 148 159 20028
-2.54124999 -3.10774994 7.20200014 134 128 142 19764
-2.54025006 -3.10649991 7.20174980 134 128 142 20025
-2.53999996 -3.10649991 7.20300007 134 128 142 18839
-2.53999996 -3.10625005 7.20424986 134 128 142 17025
-2.53950000 -3.10575008 7.20450020 88 80 95 14524
-2.53900003 -3.10500002 7.20574999 88 80 95 8485
-2.55949998 -3.12975001 7.13549995 83 79 96 2171
-2.55924988 -3.12925005 7.13899994 83 79 96 12275
-2.55900002 -3.12899995 7.13950014 83 79 96 15689
-2.55824995 -3.12800002 7.13999987 86 83 100 19360
-2.55800009 -3.12774992 7.14074993 86 83 100 20407
-2.55774999 -3.12750006 7.14200020 86 83 100 20200
-2.55749989 -3.12724996 7.14274979 107 106 122 19867
-2.55749989 -3.12724996 7.14424992 107 106 122 19050
-2.55725002 -3.12674999 7.14449978 107 106 122 18696
-2.55699992 -3.12674999 7.14599991 107 106 122 18757
-2.55699992 -3.12674999 7.14699984 107 106 122 19800
-2.55649996 -3.12599993 7.14725018 150 149 163 20060
-2.55599999 -3.12525010 7.14699984 150 149 163 20896
-2.55550003 -3.12474990 7.14874983 150 149 163 20400
-2.55524993 -3.12450004 7.14974976 150 149 163 19478
-2.55500007 -3.12424994 7.15024996 182 182 194 18928
-2.55524993 -3.12424994 7.15199995 182 182 194 19107
-2.55500007 -3.12424994 7.15324974 182 182 194 19600
-2.55425000 -3.12325001 7.15250015 182 182 194 19414
-2.55474997 -3.12374997 7.15499973 182 182 194 19796
-2.55425000 -3.12325001 7.15549994 187 187 197 19664
-2.55399990 -3.12299991 7.15625000 187 187 197 20053
-2.55375004 -3.12249994 7.15649986 187 187 197 20464
-2.55349994 -3.12225008 7.15724993 187 187 197 20675
-2.55349994 -3.12225008 7.15899992 186 186 194 21107
-2.55325007 -3.12199998 7.15974998 186 186 194 20392
-2.55275011 -3.12150002 7.15974998 186 186 194 20053
-2.55224991 -3.12100005 7.16025019 186 186 194 20189
-2.55224991 -3.12074995 7.16300011 187 188 193 21032
-2.55200005 -3.12024999 7.16475010 187 188 193 20457
-2.55174994 -3.11999989 7.16550016 187 188 193 21250
-2.55124998 -3.11949992 7.16575003 187 188 193 21032
-2.55075002 -3.11875010 7.16699982 187 186 192 21175
-2.55075002 -3.11899996 7.16874981 187 186 192 21028
-2.55049992 -3.11849999 7.16925001 187 186 192 21028
-2.55049992 -3.11849999 7.17075014 187 186 192 20878
-2.54949999 -3.11724997 7.16949987 186 185 191 20807
-2.54999995 -3.11800003 7.17224979 186 185 191 20114
-2.54925013 -3.11700010 7.17175007 186 185 191 19850
-2.54900002 -3.11700010 7.17299986 186 185 191 19528
-2.54874992 -3.11649990 7.17299986 186 185 191 19785
-2.54850006 -3.11625004 7.17425013 181 182 187 20042
-2.54799986 -3.11575007 7.17425013 181 182 187 20182
-2.54824996 -3.11599994 7.17624998 181 182 187 20110
-2.54775000 -3.11549997 7.17649984 181 182 187 20246
-2.54725003 -3.11474991 7.17824984 181 184 189 20517
-2.54699993 -3.11450005 7.17875004 181 184 189 20382
-2.54675007 -3.11400008 7.18074989 181 184 189 20310
-2.54675007 -3.11424994 7.18249989 180 183 188 19710
-2.54649997 -3.11374998 7.18300009 180 183 188 19271
-2.54600000 -3.11299992 7.18424988 180 183 188 19842
-2.54550004 -3.11249995 7.18449974 180 183 188 20107
-2.54524994 -3.11225009 7.18550014 178 178 186 20310
-2.54550004 -3.11249995 7.18725014 178 178 186 19839
-2.54474998 -3.11150002 7.18800020 178 178 186 20103
-2.54449987 -3.11124992 7.18924999 178 178 186 20035
-2.54375005 -3.11050010 7.19000006 176 175 183 19775
-2.54375005 -3.11050010 7.19150019 176 175 183 19328
-2.54325008 -3.10975003 7.19150019 176 175 183 19085
-2.54299998 -3.10949993 7.19225025 169 167 178 19703
-2.54325008 -3.10975003 7.19425011 169 167 178 20167
-2.54325008 -3.10975003 7.19549990 169 167 178 20650
-2.54250002 -3.10899997 7.19525003 169 167 178 20650
-2.54250002 -3.10899997 7.19675016 169 167 178 20435
-2.54200006 -3.10824990 7.19649982 151 148 159 20860
-2.54224992 -3.10850000 7.19875002 151 148 159 20860
-2.54174995 -3.10800004 7.19925022 151 148 159 20435
-2.54150009 -3.10774994 7.19999981 151 148 159 20435
-2.54174995 -3.10774994 7.20174980 151 148 159 20160
-2.54099989 -3.10700011 7.20074987 134 128 142 20096
-2.54049993 -3.10649991 7.20300007 134 128 142 19696
-2.54049993 -3.10649991 7.20424986 134 128 142 18375
-2.53999996 -3.10575008 7.20424986 134 128 142 16835
-2.53999996 -3.10575008 7.20550013 88 80 95 14771
-2.53924990 -3.10500002 7.20524979 88 80 95 11910
-2.55999994 -3.12949991 7.13649988 83 79 96 3867
-2.55924988 -3.12875009 7.13899994 83 79 96 14839
-2.55850005 -3.12800002 7.13875008 86 83 100 17921
-2.55850005 -3.12800002 7.13999987 86 83 100 19360
-2.55850005 -3.12800002 7.14125013 86 83 100 20064
-2.55824995 -3.12750006 7.14324999 86 83 100 19867
-2.55749989 -3.12649989 7.14249992 107 106 122 19360
-2.55725002 -3.12625003 7.14349985 107 106 122 19235
-2.55749989 -3.12674999 7.14599991 107 106 122 18992
-2.55699992 -3.12625003 7.14599991 107 106 122 19232
-2.55699992 -3.12625003 7.14750004 107 106 122 19732
-2.55675006 -3.12575006 7.14774990 150 149 163 20128
-2.55625010 -3.12500000 7.14774990 150 149 163 20471
-2.55599999 -3.12474990 7.14874983 150 149 163 20535
-2.55524993 -3.12400007 7.14974976 182 182 194 18810
-2.55474997 -3.12325001 7.15250015 182 182 194 19860
-2.55474997 -3.12350011 7.15574980 187 187 197 20328
-2.55399990 -3.12225008 7.15574980 187 187 197 20532
-2.55375004 -3.12225008 7.15700006 187 187 197 20192
-2.55375004 -3.12199998 7.15950012 186 186 194 20392
-2.55299997 -3.12124991 7.15925026 186 186 194 20121
-2.55275011 -3.12100005 7.15999985 186 186 194 20257
-2.55224991 -3.12050009 7.16025019 186 186 194 20675
-2.55275011 -3.12074995 7.16249990 186 186 194 21032
-2.55250001 -3.12050009 7.16324997 187 188 193 21032
-2.55200005 -3.11999989 7.16499996 187 188 193 21250
-2.55200005 -3.11975002 7.16625023 187 188 193 20810
-2.55100012 -3.11875010 7.16800022 187 186 192 20735
-2.55049992 -3.11824989 7.16825008 187 186 192 21100
-2.54999995 -3.11750007 7.16925001 186 185 191 21100
-2.54999995 -3.11750007 7.17124987 186 185 191 20667
-2.54974985 -3.11724997 7.17199993 186 185 191 19914
-2.54949999 -3.11700010 7.17275000 186 185 191 19464
-2.54925013 -3.11649990 7.17325020 186 185 191 19464
-2.54900002 -3.11625004 7.17374992 181 182 187 20182
-2.54874992 -3.11575007 7.17449999 181 182 187 20521
-2.54824996 -3.11525011 7.17474985 181 182 187 20453
-2.54824996 -3.11525011 7.17624998 181 182 187 20314
-2.54850006 -3.11549997 7.17824984 181 182 187 20246
-2.54799986 -3.11525011 7.17875004 181 184 189 20314
-2.54750013 -3.11450005 7.17875004 181 184 189 20589
-2.54750013 -3.11424994 7.17974997 181 184 189 20800
-2.54750013 -3.11450005 7.18149996 181 184 189 20585
-2.54699993 -3.11374998 7.18125010 181 184 189 20039
-2.54649997 -3.11325002 7.18149996 180 183 188 19271
-2.54649997 -3.11325002 7.18324995 180 183 188 19210
-2.54649997 -3.11325002 7.18449974 180 183 188 19457
-2.54624987 -3.11299992 7.18524981 180 183 188 20307
-2.54575014 -3.11225009 7.18550014 178 178 186 20378
-2.54524994 -3.11174989 7.18825006 178 178 186 19775
-2.54500008 -3.11124992 7.18875027 178 178 186 19775
-2.54375005 -3.10975003 7.19425011 169 167 178 19967
-2.54299998 -3.10875010 7.19350004 169 167 178 20507
-2.54299998 -3.10899997 7.19500017 169 167 178 20650
-2.54274988 -3.10875010 7.19750023 169 167 178 20860
-2.54200006 -3.10774994 7.19950008 151 148 159 19964
-2.54174995 -3.10750008 7.20050001 151 148 159 20028
-2.54174995 -3.10750008 7.20225000 134 128 142 19764
-2.54124999 -3.10675001 7.20349979 134 128 142 20092
-2.54099989 -3.10649991 7.20424986 134 128 142 19196
-2.54049993 -3.10575008 7.20400000 134 128 142 18046
-2.53975010 -3.10500002 7.20499992 88 80 95 13825
-2.53950000 -3.10450006 7.20699978 88 80 95 7464
-2.53874993 -3.10374999 7.20825005 72 61 78 2039
-2.53824997 -3.10299993 7.21075010 72 61 78 282
-2.56025004 -3.12925005 7.13549995 83 79 96 3203
-2.56025004 -3.12949991 7.13724995 83 79 96 6364
-2.55874991 -3.12774992 7.14200020 86 83 100 19932
-2.55824995 -3.12700009 7.14300013 107 106 122 19671
-2.55774999 -3.12649989 7.14349985 107 106 122 19114
-2.55774999 -3.12649989 7.14475012 107 106 122 19232
-2.55725002 -3.12599993 7.14499998 107 106 122 19546
-2.55749989 -3.12625003 7.14699984 107 106 122 19864
-2.55699992 -3.12549996 7.14674997 150 149 163 19800
-2.55699992 -3.12549996 7.14825010 150 149 163 19996
-2.55649996 -3.12500000 7.14874983 150 149 163 20196
-2.55599999 -3.12424994 7.14874983 150 149 163 19996
-2.55574989 -3.12400007 7.14925003 150 149 163 19603
-2.55599999 -3.12424994 7.15175009 182 182 194 19107
-2.55574989 -3.12400007 7.15199995 182 182 194 19228
-2.55500007 -3.12299991 7.15299988 182 182 194 19475
-2.55474997 -3.12299991 7.15399981 182 182 194 20328
-2.55450010 -3.12225008 7.15425014 187 187 197 20817
-2.55474997 -3.12275004 7.15675020 187 187 197 20603
-2.55450010 -3.12225008 7.15724993 187 187 197 20603
-2.55375004 -3.12150002 7.15700006 187 187 197 20603
-2.55349994 -3.12124991 7.15899992 186 186 194 19989
-2.55325007 -3.12100005 7.15999985 186 186 194 20053
-2.55299997 -3.12074995 7.16074991 186 186 194 20742
-2.55325007 -3.12074995 7.16249990 186 186 194 20885
-2.55250001 -3.12024999 7.16375017 187 188 193 21175
-2.55200005 -3.11949992 7.16375017 187 188 193 20810
-2.55224991 -3.11975002 7.16550016 187 188 193 21028
-2.55150008 -3.11875010 7.16800022 187 186 192 20457
-2.55124998 -3.11849999 7.16849995 187 186 192 20321
-2.55075002 -3.11774993 7.16874981 187 186 192 20882
-2.55049992 -3.11774993 7.17100000 186 185 191 21171
-2.55025005 -3.11724997 7.17175007 186 185 191 20735
-2.54999995 -3.11700010 7.17275000 186 185 191 20182
-2.54949999 -3.11625004 7.17224979 186 185 191 20317
-2.54949999 -3.11625004 7.17399979 186 185 191 20250
-2.54949999 -3.11625004 7.17549992 181 182 187 19910
-2.54874992 -3.11525011 7.17600012 181 182 187 20517
-2.54824996 -3.11474991 7.17749977 181 184 189 19650
-2.54799986 -3.11450005 7.17850018 181 184 189 20110
-2.54799986 -3.11450005 7.17999983 181 184 189 20946
-2.54750013 -3.11374998 7.17974997 181 184 189 21092
-2.54750013 -3.11374998 7.18125010 181 184 189 20514
-2.54725003 -3.11374998 7.18249989 180 183 188 20175
-2.54675007 -3.11299992 7.18349981 180 183 188 18967
-2.54600000 -3.11225009 7.18324995 180 183 188 20039
-2.54649997 -3.11275005 7.18599987 180 183 188 20796
-2.54575014 -3.11174989 7.18524981 178 178 186 20171
-2.54575014 -3.11174989 7.18800020 178 178 186 19453
-2.54500008 -3.11074996 7.18875027 178 178 186 19707
-2.54449987 -3.11025000 7.18924999 176 175 183 19517
-2.54449987 -3.11025000 7.19050026 176 175 183 19453
-2.54449987 -3.10999990 7.19175005 176 175 183 19328
-2.54375005 -3.10925007 7.19274998 169 167 178 19771
-2.54349995 -3.10899997 7.19325018 169 167 178 20032
-2.54349995 -3.10899997 7.19525003 169 167 178 20167
-2.54349995 -3.10899997 7.19649982 169 167 178 20435
-2.54274988 -3.10824990 7.19600010 169 167 178 21010
-2.54224992 -3.10750008 7.19875002 151 148 159 20789
-2.54200006 -3.10700011 7.19925022 151 148 159 19832
-2.54224992 -3.10724998 7.20125008 151 148 159 19696
-2.54150009 -3.10649991 7.20275021 134 128 142 19960
-2.54099989 -3.10575008 7.20225000 134 128 142 19200
-2.54099989 -3.10599995 7.20424986 134 128 142 18721
-2.54049993 -3.10549998 7.20450020 134 128 142 17992
-2.54025006 -3.10500002 7.20625019 88 80 95 13635
-2.53999996 -3.10474992 7.20725012 88 80 95 10628
-2.53975010 -3.10424995 7.20900011 88 80 95 3414
-2.56075001 -3.12949991 7.13574982 82 79 98 2839
-2.55999994 -3.12875009 7.13700008 82 79 98 9803
-2.55999994 -3.12875009 7.13824987 82 79 98 13853
-2.55924988 -3.12774992 7.14050007 81 78 97 19735
-2.55874991 -3.12724996 7.14050007 81 78 97 20132
-2.55900002 -3.12724996 7.14225006 81 78 97 19803
-2.55850005 -3.12674999 7.14249992 81 78 97 19867
-2.55800009 -3.12625003 7.14274979 92 91 107 20000
-2.55824995 -3.12649989 7.14449978 92 91 107 19803
-2.55675006 -3.12474990 7.14650011 131 130 146 19864
-2.55699992 -3.12500000 7.14825010 131 130 146 20535
-2.55675006 -3.12474990 7.14949989 131 130 146 19928
-2.55675006 -3.12450004 7.15049982 131 130 146 19860
-2.55625010 -3.12400007 7.15224981 166 165 179 19167
-2.55599999 -3.12374997 7.15275002 166 165 179 19860
-2.55550003 -3.12299991 7.15275002 166 165 179 19992
-2.55500007 -3.12249994 7.15450001 181 181 193 20889
-2.55474997 -3.12225008 7.15799999 181 181 193 20742
-2.55450010 -3.12199998 7.15899992 181 181 193 21035
-2.55399990 -3.12124991 7.15875006 185 185 195 20325
-2.55349994 -3.12074995 7.16050005 185 185 195 20600
-2.55349994 -3.12050009 7.16174984 185 185 195 21032
-2.55325007 -3.12024999 7.16275024 185 185 195 21175
-2.55299997 -3.11999989 7.16324997 184 184 192 21328
-2.55275011 -3.11975002 7.16424990 184 184 192 20882
-2.55250001 -3.11949992 7.16499996 184 184 192 20525
-2.55174994 -3.11875010 7.16450024 184 184 192 19917
-2.55200005 -3.11899996 7.16674995 183 182 188 20185
-2.55174994 -3.11875010 7.16750002 183 182 188 19914
-2.55150008 -3.11824989 7.16800022 183 182 188 19982
-2.55150008 -3.11824989 7.16975021 183 182 188 20596
-2.55075002 -3.11724997 7.16849995 183 182 188 21478
-2.54999995 -3.11649990 7.17250013 185 186 191 20807
-2.54999995 -3.11649990 7.17399979 185 186 191 19714
-2.54974985 -3.11625004 7.17474985 178 181 186 20110
-2.54974985 -3.11599994 7.17574978 178 181 186 20875
-2.54850006 -3.11450005 7.17675018 178 181 186 20314
-2.54824996 -3.11424994 7.18074989 179 182 187 21317
-2.54750013 -3.11325002 7.17974997 179 182 187 20800
-2.54699993 -3.11275005 7.18125010 176 179 186 19460
-2.54699993 -3.11275005 7.18324995 176 179 186 19392
-2.54649997 -3.11199999 7.18300009 176 179 186 19392
-2.54649997 -3.11199999 7.18449974 176 179 186 19975
-2.54649997 -3.11199999 7.18699980 171 174 181 20657
-2.54550004 -3.11100006 7.18774986 171 174 181 19578
-2.54524994 -3.11050010 7.18800020 171 174 181 19146
-2.54500008 -3.11025000 7.18875027 168 168 178 19453
-2.54474998 -3.10999990 7.19099998 168 168 178 19967
-2.54449987 -3.10975003 7.19225025 168 168 178 19703
-2.54425001 -3.10949993 7.19299984 168 168 178 20167
-2.54425001 -3.10949993 7.19449997 158 156 167 20439
-2.54349995 -3.10850000 7.19374990 158 156 167 20235
-2.54349995 -3.10824990 7.19474983 158 156 167 20507
-2.54325008 -3.10800004 7.19549990 158 156 167 21082
-2.54325008 -3.10824990 7.19750023 158 156 167 20932
-2.54325008 -3.10800004 7.19850016 135 131 145 20932
-2.54224992 -3.10675001 7.19999981 135 131 145 19382
-2.54224992 -3.10675001 7.20149994 113 109 123 20025
-2.54174995 -3.10649991 7.20225000 113 109 123 19764
-2.54174995 -3.10649991 7.20349979 113 109 123 19321
-2.54150009 -3.10599995 7.20400000 113 109 123 19196
-2.54099989 -3.10549998 7.20450020 113 109 123 18835
-2.54075003 -3.10500002 7.20475006 75 68 84 17367
-2.54075003 -3.10524988 7.20674992 75 68 84 15817
-2.54025006 -3.10450006 7.20674992 75 68 84 12767
-2.56075001 -3.12899995 7.13574982 82 79 98 4800
-2.56075001 -3.12899995 7.13700008 82 79 98 8471
-2.56025004 -3.12849998 7.13875008 82 79 98 16235
-2.55999994 -3.12825012 7.13950014 82 79 98 18700
-2.55949998 -3.12724996 7.14200020 81 78 97 20200
-2.55850005 -3.12625003 7.14125013 81 78 97 19803
-2.55824995 -3.12599993 7.14200020 92 91 107 20132
-2.55824995 -3.12599993 7.14349985 92 91 107 20267
-2.55800009 -3.12575006 7.14400005 92 91 107 20471
-2.55824995 -3.12575006 7.14575005 92 91 107 20403
-2.55749989 -3.12500000 7.14550018 92 91 107 20000
-2.55725002 -3.12450004 7.14599991 131 130 146 20132
-2.55675006 -3.12400007 7.14900017 131 130 146 19928
-2.55625010 -3.12350011 7.14949989 131 130 146 19928
-2.55649996 -3.12374997 7.15100002 166 165 179 19353
-2.55649996 -3.12374997 7.15250015 166 165 179 19728
-2.55599999 -3.12299991 7.15425014 166 165 179 19925
-2.55574989 -3.12275004 7.15474987 166 165 179 20396
-2.55524993 -3.12225008 7.15525007 181 181 193 20464
-2.55524993 -3.12225008 7.15675020 181 181 193 21035
-2.55500007 -3.12174988 7.15850019 181 181 193 20957
-2.55425000 -3.12100005 7.15925026 185 185 195 20392
-2.55399990 -3.12050009 7.15999985 185 185 195 20675
-2.55399990 -3.12050009 7.16149998 185 185 195 20600
-2.55375004 -3.12024999 7.16249990 185 185 195 20528
-2.55299997 -3.11949992 7.16349983 184 184 192 21103
-2.55275011 -3.11925006 7.16424990 184 184 192 20389
-2.55275011 -3.11925006 7.16550016 184 184 192 20953
-2.55275011 -3.11899996 7.16674995 184 184 192 20389
-2.55224991 -3.11849999 7.16699982 183 182 188 20185
-2.55174994 -3.11800003 7.16725016 183 182 188 19789
-2.55150008 -3.11774993 7.16800022 183 182 188 20253
-2.55124998 -3.11750007 7.16900015 183 182 188 20953
-2.55150008 -3.11750007 7.17049980 183 182 188 21400
-2.55049992 -3.11649990 7.17374992 185 186 191 20178
-2.54999995 -3.11575007 7.17350006 185 186 191 20182
-2.54949999 -3.11525011 7.17700005 178 181 186 21092
-2.54900002 -3.11450005 7.17675018 178 181 186 20314
-2.54900002 -3.11474991 7.17850018 179 182 187 20039
-2.54874992 -3.11424994 7.17875004 179 182 187 21021
-2.54850006 -3.11400008 7.17974997 179 182 187 21164
-2.54775000 -3.11325002 7.18074989 179 182 187 20589
-2.54775000 -3.11299992 7.18324995 176 179 186 19332
-2.54725003 -3.11249995 7.18375015 176 179 186 19457
-2.54699993 -3.11199999 7.18550014 176 179 186 20796
-2.54699993 -3.11199999 7.18699980 171 174 181 20510
-2.54524994 -3.11025000 7.19124985 168 168 178 19639
-2.54524994 -3.10999990 7.19250011 168 168 178 19967
-2.54474998 -3.10949993 7.19274998 168 168 178 20235
-2.54425001 -3.10875010 7.19274998 158 156 167 19900
-2.54400015 -3.10850000 7.19350004 158 156 167 19835
-2.54400015 -3.10850000 7.19474983 158 156 167 20235
-2.54349995 -3.10774994 7.19624996 158 156 167 21307
-2.54325008 -3.10750008 7.19875002 135 131 145 20575
-2.54299998 -3.10724998 7.19899988 135 131 145 20646
-2.54299998 -3.10724998 7.20050001 135 131 145 19832
-2.54274988 -3.10675001 7.20125008 135 131 145 19767
-2.54224992 -3.10649991 7.20174980 113 109 123 19828
-2.54200006 -3.10599995 7.20249987 113 109 123 19382
-2.54174995 -3.10575008 7.20349979 113 109 123 19510
-2.54150009 -3.10524988 7.20375013 113 109 123 19014
-2.54124999 -3.10524988 7.20475006 113 109 123 18603
-2.54075003 -3.10450006 7.20450020 75 68 84 17678
-2.54075003 -3.10450006 7.20625019 75 68 84 14921
-2.53999996 -3.10374999 7.20725012 75 68 84 7021
-2.56150007 -3.12925005 7.13649988 82 79 98 3696
-2.56099987 -3.12849998 7.13625002 82 79 98 7375
-2.56075001 -3.12849998 7.13875008 82 79 98 15728
-2.56050014 -3.12800002 7.13924980 82 79 98 18246
-2.56025004 -3.12774992 7.13999987 81 78 97 19803
-2.55975008 -3.12724996 7.14200020 81 78 97 19417
-2.55924988 -3.12674999 7.14174986 81 78 97 20064
-2.55900002 -3.12625003 7.14225006 81 78 97 19803
-2.55850005 -3.12575006 7.14274979 92 91 107 19671
-2.55824995 -3.12549996 7.14349985 92 91 107 20403
-2.55749989 -3.12450004 7.14575005 92 91 107 20471
-2.55800009 -3.12500000 7.14799976 131 130 146 20535
-2.55774999 -3.12474990 7.14900017 131 130 146 20196
-2.55749989 -3.12450004 7.14974976 131 130 146 19864
-2.55675006 -3.12350011 7.14925003 131 130 146 20060
-2.55649996 -3.12325001 7.15000010 166 165 179 19864
-2.55574989 -3.12249994 7.15224981 166 165 179 19796
-2.55625010 -3.12275004 7.15474987 166 165 179 20260
-2.55574989 -3.12225008 7.15499973 181 181 193 20960
-2.55550003 -3.12199998 7.15574980 181 181 193 21410
-2.55524993 -3.12174988 7.15675020 181 181 193 21485
-2.55425000 -3.12024999 7.15775013 185 185 195 20814
-2.55399990 -3.12024999 7.15899992 185 185 195 20532
-2.55375004 -3.11975002 7.15950012 185 185 195 20675
-2.55375004 -3.11999989 7.16149998 185 185 195 20600
-2.55349994 -3.11949992 7.16200018 185 185 195 20885
-2.55375004 -3.11975002 7.16375017 184 184 192 21103
-2.55349994 -3.11949992 7.16475010 184 184 192 20953
-2.55275011 -3.11875010 7.16424990 184 184 192 20957
-2.55250001 -3.11824989 7.16625023 183 182 188 20321
-2.55200005 -3.11774993 7.16774988 183 182 188 19278
-2.55150008 -3.11724997 7.17075014 185 186 191 21550
-2.55124998 -3.11700010 7.17175007 185 186 191 21550
-2.55075002 -3.11625004 7.17299986 185 186 191 20592
-2.54999995 -3.11525011 7.17649984 178 181 186 21242
-2.54974985 -3.11474991 7.17724991 178 181 186 20110
-2.54900002 -3.11424994 7.17999983 179 182 187 20942
-2.54874992 -3.11374998 7.18050003 179 182 187 21021
-2.54824996 -3.11325002 7.18249989 179 182 187 19975
-2.54799986 -3.11275005 7.18274975 176 179 186 19332
-2.54575014 -3.10999990 7.18825006 171 174 181 18967
-2.54550004 -3.10975003 7.19024992 168 168 178 19517
-2.54524994 -3.10949993 7.19099998 168 168 178 19775
-2.54474998 -3.10875010 7.19099998 168 168 178 19707
-2.54474998 -3.10899997 7.19274998 168 168 178 19639
-2.54474998 -3.10875010 7.19400024 158 156 167 19900
-2.54400015 -3.10800004 7.19374990 158 156 167 20235
-2.54400015 -3.10800004 7.19474983 158 156 167 20792
-2.54349995 -3.10750008 7.19525003 158 156 167 20935
-2.54375005 -3.10774994 7.19750023 158 156 167 20932
-2.54375005 -3.10750008 7.19824982 135 131 145 20789
-2.54325008 -3.10700011 7.19974995 135 131 145 20028
-2.54299998 -3.10675001 7.20074987 135 131 145 19832
-2.54299998 -3.10649991 7.20200014 113 109 123 19764
-2.54250002 -3.10625005 7.20275021 113 109 123 19632
-2.54224992 -3.10575008 7.20300007 113 109 123 19828
-2.54150009 -3.10500002 7.20249987 113 109 123 19828
-2.54174995 -3.10500002 7.20450020 113 109 123 19321
-2.54150009 -3.10474992 7.20699978 75 68 84 16785
-2.54075003 -3.10400009 7.20650005 75 68 84 13071
-2.54075003 -3.10400009 7.20774984 75 68 84 8732
-2.54049993 -3.10349989 7.20975018 68 59 76 2367
-2.56174994 -3.12899995 7.13649988 82 79 98 5889
-2.56124997 -3.12849998 7.13724995 82 79 98 10375
-2.56075001 -3.12774992 7.13675022 82 79 98 14625
-2.56025004 -3.12724996 7.14025021 81 78 97 18935
-2.55999994 -3.12674999 7.14050007 81 78 97 19050
-2.55949998 -3.12625003 7.14050007 81 78 97 19421
-2.55949998 -3.12649989 7.14249992 81 78 97 19607
-2.55900002 -3.12549996 7.14349985 92 91 107 20403
-2.55874991 -3.12525010 7.14550018 92 91 107 20682
-2.55800009 -3.12450004 7.14550018 92 91 107 20539
-2.55800009 -3.12450004 7.14674997 131 130 146 20682
-2.55824995 -3.12474990 7.14874983 131 130 146 20682
-2.55774999 -3.12424994 7.14900017 131 130 146 20400
-2.55749989 -3.12400007 7.14974976 131 130 146 20196
-2.55699992 -3.12325001 7.15224981 166 165 179 20467
-2.55649996 -3.12249994 7.15250015 166 165 179 19992
-2.55625010 -3.12225008 7.15350008 166 165 179 20125
-2.55599999 -3.12199998 7.15399981 166 165 179 20889
-2.55599999 -3.12225008 7.15574980 181 181 193 21332
-2.55550003 -3.12150002 7.15724993 181 181 193 22192
-2.55550003 -3.12124991 7.15824986 181 181 193 21407
-2.55500007 -3.12100005 7.15899992 185 185 195 20957
-2.55474997 -3.12050009 7.15925026 185 185 195 20885
-2.55425000 -3.11975002 7.15925026 185 185 195 20960
-2.55399990 -3.11949992 7.15999985 185 185 195 21107
-2.55399990 -3.11949992 7.16174984 185 185 195 21103
-2.55325007 -3.11875010 7.16249990 184 184 192 21253
-2.55349994 -3.11875010 7.16424990 184 184 192 21032
-2.55325007 -3.11875010 7.16524982 184 184 192 21553
-2.55250001 -3.11800003 7.16499996 184 184 192 20810
-2.55224991 -3.11750007 7.16550016 183 182 188 20253
-2.55200005 -3.11724997 7.16650009 183 182 188 20117
-2.55200005 -3.11724997 7.16900015 183 182 188 20735
-2.55174994 -3.11675000 7.17100000 185 186 191 21321
-2.55150008 -3.11649990 7.17199993 185 186 191 20950
-2.55124998 -3.11625004 7.17275000 185 186 191 20732
