//X Y Z R G B Intensity
-0.08975000 5.30950022 0.05700000 90 76 109 7903.000000
-0.08975000 5.30749989 0.05800000 90 76 109 8639.000000
-0.08975000 5.30725002 0.05900000 90 77 107 7482.000000
-0.08975000 5.30950022 0.06000000 90 77 107 6621.000000
-0.08975000 5.30725002 0.06100000 87 76 106 6882.000000
-0.08975000 5.30849981 0.06200000 87 76 106 7725.000000
-0.08975000 5.30700016 0.06300000 87 77 104 8453.000000
-0.08975000 5.30775023 0.06400000 87 77 104 8007.000000
-0.08975000 5.30849981 0.06500000 88 79 106 7635.000000
-0.08975000 5.30800009 0.06600000 88 79 106 7203.000000
-0.08975000 5.30875015 0.06700000 88 79 106 7453.000000
-0.08975000 5.30875015 0.06800000 88 80 104 7539.000000
-0.08975000 5.30900002 0.06900000 88 80 104 8689.000000
-0.08975000 5.30849981 0.07000000 84 79 102 8335.000000
-0.08975000 5.30900002 0.07100000 84 79 102 7903.000000
-0.08975000 5.30875015 0.07200000 95 92 113 8400.000000
-0.08975000 5.30950022 0.07300000 95 92 113 8275.000000
-0.08975000 5.30900002 0.07400000 93 92 110 8214.000000
-0.08975000 5.30950022 0.07500000 93 92 110 11360.000000
-0.08975000 5.30824995 0.07600000 125 127 142 17610.000000
-0.08975000 5.30875015 0.07700000 125 127 142 24550.000000
-0.08975000 5.30950022 0.07800000 125 127 142 30410.000000
-0.08975000 5.30875015 0.07900000 187 190 205 37639.000000
-0.08975000 5.30975008 0.08000000 187 190 205 42007.000000
-0.08975000 5.30999994 0.08100000 228 234 246 42003.000000
-0.08975000 5.30950022 0.08200000 228 234 246 39100.000000
-0.08975000 5.30975008 0.08300000 232 238 250 36864.000000
-0.08975000 5.30800009 0.08400000 232 238 250 36285.000000
-0.08975000 5.30849981 0.08500000 227 236 245 36575.000000
-0.08975000 5.30900002 0.08600000 227 236 245 35846.000000
-0.08975000 5.30950022 0.08700000 233 240 248 37789.000000
-0.08975000 5.31075001 0.08825000 233 240 248 40492.000000
-0.08975000 5.30999994 0.08900000 233 240 248 38264.000000
-0.08975000 5.30975008 0.09000000 235 240 244 36714.000000
-0.08975000 5.30999994 0.09125000 235 240 244 38107.000000
-0.08975000 5.31024981 0.09225000 235 240 243 37010.000000
-0.08975000 5.31024981 0.09300000 235 240 243 35978.000000
-0.08975000 5.30924988 0.09400000 233 241 243 35985.000000
-0.08975000 5.30975008 0.09500000 233 241 243 36864.000000
-0.08975000 5.30975008 0.09600000 233 241 244 37632.000000
-0.08975000 5.30900002 0.09700000 233 241 244 36567.000000
-0.08975000 5.30975008 0.09800000 233 241 244 34735.000000
-0.08975000 5.31099987 0.09925000 232 242 244 35132.000000
-0.08975000 5.30950022 0.10000000 232 242 244 34603.000000
-0.08975000 5.30950022 0.10100000 232 241 246 34867.000000
-0.08975000 5.31050014 0.10225000 232 241 246 35975.000000
-0.08975000 5.30950022 0.10300000 232 241 248 36271.000000
-0.08975000 5.31075001 0.10425000 232 241 248 37310.000000
-0.08975000 5.31050014 0.10525000 233 240 248 38103.000000
-0.08975000 5.31250000 0.10625000 233 240 248 37764.000000
-0.08975000 5.31199980 0.10725000 232 239 245 35821.000000
-0.08975000 5.31174994 0.10825000 232 239 245 34853.000000
-0.08975000 5.31199980 0.10925000 232 239 245 33064.000000
-0.08975000 5.31099987 0.11025000 231 236 242 22403.000000
-0.08975000 5.31199980 0.11125000 231 236 242 10539.000000
-0.08850000 5.29425001 -0.00325000 145 133 119 3078.000000
-0.08850000 5.29199982 -0.00225000 121 111 102 3846.000000
-0.08850000 5.29300022 -0.00125000 121 111 102 4221.000000
-0.08850000 5.29150009 -0.00025000 105 97 95 3800.000000
-0.08850000 5.30149984 0.00050000 105 97 95 2092.000000
-0.08850000 5.30424976 0.00250000 96 89 96 5278.000000
-0.08850000 5.30275011 0.00350000 121 118 129 17067.000000
-0.08850000 5.30275011 0.00450000 121 118 129 28992.000000
-0.08850000 5.30200005 0.00550000 178 176 189 35067.000000
-0.08850000 5.30224991 0.00650000 178 176 189 35617.000000
-0.08850000 5.30200005 0.00750000 178 176 189 36046.000000
-0.08850000 5.30324984 0.00850000 223 225 237 37689.000000
-0.08850000 5.30275011 0.00950000 223 225 237 35896.000000
-0.08850000 5.30324984 0.01050000 231 236 242 34921.000000
-0.08850000 5.30299997 0.01150000 231 236 242 38325.000000
-0.08850000 5.30474997 0.01250000 228 236 239 36171.000000
-0.08850000 5.30375004 0.01350000 228 236 239 35332.000000
-0.08850000 5.30375004 0.01450000 231 241 240 37371.000000
-0.08850000 5.30399990 0.01550000 231 241 240 41292.000000
-0.08850000 5.30350018 0.01650000 229 239 238 40200.000000
-0.08850000 5.30324984 0.01750000 229 239 238 39157.000000
-0.08850000 5.30399990 0.01850000 229 239 238 38650.000000
-0.08850000 5.30424976 0.01950000 232 240 242 38814.000000
-0.08850000 5.30399990 0.02050000 232 240 242 38982.000000
-0.08850000 5.30424976 0.02150000 232 240 242 37678.000000
-0.08850000 5.30375004 0.02250000 232 240 242 38650.000000
-0.08850000 5.30450010 0.02350000 232 240 242 38157.000000
-0.08850000 5.30499983 0.02450000 232 240 242 37828.000000
-0.08850000 5.30499983 0.02550000 234 239 243 36903.000000
-0.08850000 5.30550003 0.02650000 234 239 243 37050.000000
-0.08850000 5.30450010 0.02750000 234 239 243 37060.000000
-0.08850000 5.30525017 0.02850000 234 239 243 36603.000000
-0.08875000 5.30574989 0.02950000 234 239 243 36900.000000
-0.08875000 5.30574989 0.03050000 234 239 245 37510.000000
-0.08850000 5.30499983 0.03150000 234 239 245 38153.000000
-0.08875000 5.30649996 0.03250000 234 238 247 38464.000000
-0.08875000 5.30600023 0.03350000 234 238 247 37353.000000
-0.08850000 5.30399990 0.03450000 234 238 249 35742.000000
-0.08850000 5.30499983 0.03550000 234 238 249 36025.000000
-0.08850000 5.30399990 0.03625000 235 237 249 32071.000000
-0.08850000 5.30525017 0.03750000 235 237 249 27232.000000
-0.08850000 5.30550003 0.03850000 221 223 236 21575.000000
-0.08850000 5.30525017 0.03950000 221 223 236 15217.000000
-0.08875000 5.30649996 0.04050000 221 223 236 10732.000000
-0.08875000 5.30649996 0.04150000 178 179 197 8557.000000
-0.08850000 5.30525017 0.04250000 178 179 197 8800.000000
-0.08850000 5.30574989 0.04350000 125 123 144 7939.000000
-0.08850000 5.30499983 0.04450000 125 123 144 6903.000000
-0.08875000 5.30625010 0.04550000 92 90 112 6721.000000
-0.08850000 5.30474997 0.04650000 92 90 112 6650.000000
-0.08875000 5.30674982 0.04750000 88 86 110 7014.000000
-0.08875000 5.30574989 0.04850000 88 86 110 7857.000000
-0.08875000 5.30775023 0.04950000 88 86 110 7492.000000
-0.08875000 5.30849981 0.05050000 90 88 112 6982.000000
-0.08875000 5.30625010 0.05150000 90 88 112 6596.000000
-0.08875000 5.30775023 0.05250000 87 83 110 6953.000000
-0.08875000 5.30700016 0.05350000 87 83 110 7457.000000
-0.08875000 5.30749989 0.05450000 86 75 107 8021.000000
-0.08875000 5.30824995 0.05550000 86 75 107 7642.000000
-0.08875000 5.30749989 0.05650000 90 76 109 7596.000000
-0.08875000 5.30749989 0.05750000 90 76 109 8092.000000
-0.08875000 5.30775023 0.05850000 90 77 107 8350.000000
-0.08875000 5.30875015 0.05950000 90 77 107 8553.000000
-0.08875000 5.30875015 0.06050000 90 77 107 7346.000000
-0.08875000 5.30824995 0.06150000 87 76 106 7378.000000
-0.08875000 5.30749989 0.06250000 87 76 106 7271.000000
-0.08875000 5.30800009 0.06350000 87 77 104 7739.000000
-0.08875000 5.30849981 0.06450000 87 77 104 7732.000000
-0.08875000 5.30849981 0.06550000 88 79 106 7342.000000
-0.08875000 5.30674982 0.06650000 88 79 106 7246.000000
-0.08875000 5.30749989 0.06750000 88 80 104 7703.000000
-0.08875000 5.30725002 0.06850000 88 80 104 7632.000000
-0.08875000 5.30749989 0.06950000 84 79 102 7900.000000
-0.08875000 5.30749989 0.07050000 84 79 102 8075.000000
-0.08875000 5.30849981 0.07150000 84 79 102 7828.000000
-0.08875000 5.30875015 0.07250000 95 92 113 8335.000000
-0.08875000 5.30999994 0.07350000 95 92 113 10010.000000
-0.08875000 5.30900002 0.07450000 93 92 110 14753.000000
-0.08875000 5.30975008 0.07550000 93 92 110 21553.000000
-0.08875000 5.30875015 0.07650000 125 127 142 28228.000000
-0.08875000 5.30875015 0.07750000 125 127 142 34614.000000
-0.08875000 5.30824995 0.07850000 187 190 205 36282.000000
-0.08875000 5.30700016 0.07950000 187 190 205 35860.000000
-0.08875000 5.30900002 0.08050000 187 190 205 38603.000000
-0.08875000 5.30749989 0.08150000 228 234 246 37492.000000
-0.08875000 5.30674982 0.08250000 228 234 246 36150.000000
-0.08875000 5.30924988 0.08350000 232 238 250 35700.000000
-0.08875000 5.30900002 0.08450000 232 238 250 35289.000000
-0.08875000 5.30924988 0.08550000 227 236 245 37325.000000
-0.08875000 5.30824995 0.08650000 227 236 245 39975.000000
-0.08875000 5.31024981 0.08750000 233 240 248 41428.000000
-0.08875000 5.30975008 0.08850000 233 240 248 40682.000000
-0.08875000 5.30924988 0.08950000 235 240 244 38114.000000
-0.08875000 5.30900002 0.09050000 235 240 244 36867.000000
-0.08875000 5.30999994 0.09150000 235 240 244 38264.000000
-0.08875000 5.31024981 0.09250000 235 240 243 38760.000000
-0.08875000 5.31125021 0.09350000 235 240 243 37621.000000
-0.08875000 5.31075001 0.09450000 233 241 243 38425.000000
-0.08875000 5.31050014 0.09550000 233 241 243 37625.000000
-0.08875000 5.31075001 0.09650000 233 241 244 37621.000000
-0.08875000 5.31150007 0.09750000 233 241 244 38096.000000
-0.08875000 5.30924988 0.09850000 232 242 244 37950.000000
-0.08875000 5.30924988 0.09950000 232 242 244 35696.000000
-0.08875000 5.30999994 0.10050000 232 241 246 34082.000000
-0.08875000 5.31050014 0.10150000 232 241 246 33439.000000
-0.08875000 5.31024981 0.10250000 232 241 246 33078.000000
-0.08875000 5.31075001 0.10350000 232 241 248 33689.000000
-0.08875000 5.31075001 0.10450000 232 241 248 34332.000000
-0.08875000 5.31125021 0.10550000 233 240 248 35971.000000
-0.08875000 5.31150007 0.10650000 233 240 248 35403.000000
-0.08875000 5.31199980 0.10750000 232 239 245 34189.000000
-0.08875000 5.31125021 0.10850000 232 239 245 34589.000000
-0.08875000 5.31075001 0.10950000 231 236 242 32017.000000
-0.08875000 5.30975008 0.11050000 231 236 242 21864.000000
-0.08875000 5.31075001 0.11150000 234 235 240 3371.000000
-0.08750000 5.29850006 -0.00475000 121 111 109 1357.000000
-0.08750000 5.29274988 -0.00375000 121 111 109 3275.000000
-0.08750000 5.29125023 -0.00275000 105 96 97 3850.000000
-0.08750000 5.29325008 -0.00175000 105 96 97 4010.000000
-0.08750000 5.29349995 -0.00075000 96 89 96 3703.000000
-0.08750000 5.29600000 0.00000000 96 89 96 2517.000000
-0.08750000 5.30350018 0.00200000 101 96 103 2075.000000
-0.08750000 5.30324984 0.00300000 133 132 140 16064.000000
-0.08750000 5.30200005 0.00400000 133 132 140 27167.000000
-0.08750000 5.30350018 0.00500000 133 132 140 32650.000000
-0.08750000 5.30249977 0.00600000 190 190 198 34928.000000
-0.08750000 5.30350018 0.00700000 190 190 198 35335.000000
-0.08750000 5.30200005 0.00800000 227 230 237 36628.000000
-0.08750000 5.30299997 0.00900000 227 230 237 38171.000000
-0.08750000 5.30200005 0.01000000 231 236 240 35482.000000
-0.08750000 5.30350018 0.01100000 231 236 240 36325.000000
-0.08750000 5.30299997 0.01200000 232 237 241 34921.000000
-0.08750000 5.30324984 0.01300000 232 237 241 35750.000000
-0.08750000 5.30299997 0.01400000 232 237 241 35475.000000
-0.08750000 5.30424976 0.01500000 233 241 243 37210.000000
-0.08775000 5.30474997 0.01600000 233 241 243 39146.000000
-0.08775000 5.30499983 0.01700000 228 236 238 36607.000000
-0.08750000 5.30375004 0.01800000 228 236 238 35889.000000
-0.08750000 5.30299997 0.01900000 234 239 243 37846.000000
-0.08750000 5.30424976 0.02000000 234 239 243 39664.000000
-0.08750000 5.30350018 0.02100000 234 239 245 37842.000000
-0.08750000 5.30375004 0.02200000 234 239 245 36467.000000
-0.08775000 5.30525017 0.02300000 234 239 243 35460.000000
-0.08750000 5.30375004 0.02400000 234 239 243 35057.000000
-0.08750000 5.30450010 0.02500000 234 239 243 34778.000000
-0.08750000 5.30450010 0.02600000 234 239 243 35739.000000
-0.08750000 5.30450010 0.02700000 234 239 243 36910.000000
-0.08750000 5.30450010 0.02800000 234 239 243 38482.000000
-0.08775000 5.30600023 0.02900000 234 239 243 40539.000000
-0.08775000 5.30600023 0.03000000 234 239 243 39825.000000
-0.08775000 5.30550003 0.03100000 234 239 243 36453.000000
-0.08775000 5.30525017 0.03200000 234 239 245 36753.000000
-0.08775000 5.30550003 0.03300000 234 239 245 36021.000000
-0.08775000 5.30574989 0.03400000 234 239 245 37667.000000
-0.08775000 5.30474997 0.03500000 234 239 245 35325.000000
-0.08750000 5.30399990 0.03600000 234 239 245 33742.000000
-0.08750000 5.30474997 0.03700000 231 236 242 31839.000000
-0.08775000 5.30525017 0.03800000 231 236 242 27478.000000
-0.08750000 5.30399990 0.03900000 229 233 242 22546.000000
-0.08775000 5.30574989 0.04000000 229 233 242 16139.000000
-0.08775000 5.30550003 0.04100000 211 215 227 12714.000000
-0.08775000 5.30574989 0.04200000 211 215 227 10267.000000
-0.08775000 5.30649996 0.04300000 170 173 188 8771.000000
-0.08775000 5.30499983 0.04400000 170 173 188 7471.000000
-0.08775000 5.30649996 0.04500000 122 125 144 7703.000000
-0.08775000 5.30700016 0.04600000 122 125 144 7439.000000
-0.08775000 5.30674982 0.04700000 122 125 144 7171.000000
-0.08775000 5.30550003 0.04800000 90 92 113 7135.000000
-0.08775000 5.30674982 0.04900000 90 92 113 7675.000000
-0.08775000 5.30499983 0.05000000 83 85 108 7539.000000
-0.08775000 5.30574989 0.05100000 83 85 108 7064.000000
-0.08775000 5.30700016 0.05200000 91 88 115 7375.000000
-0.08775000 5.30649996 0.05300000 91 88 115 7975.000000
-0.08775000 5.30725002 0.05400000 94 85 116 7882.000000
-0.08775000 5.30749989 0.05500000 94 85 116 7167.000000
-0.08775000 5.30725002 0.05600000 94 85 116 6407.000000
-0.08775000 5.30725002 0.05700000 90 79 111 6900.000000
-0.08775000 5.30725002 0.05800000 90 79 111 7146.000000
-0.08775000 5.30824995 0.05900000 87 76 108 7664.000000
-0.08775000 5.30950022 0.06000000 87 76 108 7885.000000
-0.08775000 5.30824995 0.06100000 89 78 108 7732.000000
-0.08775000 5.30550003 0.06200000 89 78 108 7585.000000
-0.08775000 5.30775023 0.06300000 92 83 110 8075.000000
-0.08775000 5.30800009 0.06400000 92 83 110 7796.000000
-0.08775000 5.30924988 0.06500000 92 87 110 7153.000000
-0.08775000 5.30749989 0.06600000 92 87 110 6635.000000
-0.08775000 5.30800009 0.06700000 92 87 110 7282.000000
-0.08775000 5.30674982 0.06800000 95 90 113 7571.000000
-0.08775000 5.30775023 0.06900000 95 90 113 8510.000000
-0.08775000 5.30725002 0.07000000 96 93 114 7942.000000
-0.08775000 5.30849981 0.07100000 96 93 114 7839.000000
-0.08775000 5.30950022 0.07200000 98 97 115 9192.000000
-0.08775000 5.30849981 0.07300000 98 97 115 13071.000000
-0.08775000 5.30999994 0.07400000 132 134 149 18850.000000
-0.08775000 5.30824995 0.07500000 132 134 149 24617.000000
-0.08775000 5.30849981 0.07600000 181 185 197 32614.000000
-0.08775000 5.30875015 0.07700000 181 185 197 36571.000000
-0.08775000 5.30924988 0.07800000 181 185 197 38600.000000
-0.08775000 5.30875015 0.07900000 220 224 235 37025.000000
-0.08775000 5.30849981 0.08000000 220 224 235 37332.000000
-0.08775000 5.30924988 0.08100000 232 239 249 38271.000000
-0.08775000 5.30900002 0.08200000 232 239 249 38439.000000
-0.08775000 5.30924988 0.08300000 232 239 247 38935.000000
-0.08775000 5.30875015 0.08400000 232 239 247 37171.000000
-0.08775000 5.30900002 0.08500000 230 239 246 37017.000000
-0.08775000 5.30999994 0.08600000 230 239 246 37946.000000
-0.08775000 5.31050014 0.08725000 234 241 247 40496.000000
-0.08775000 5.30975008 0.08800000 234 241 247 40682.000000
-0.08775000 5.30975008 0.08900000 234 241 247 38435.000000
-0.08775000 5.30999994 0.09000000 235 240 244 37785.000000
-0.08775000 5.31050014 0.09125000 235 240 244 38589.000000
-0.08775000 5.30975008 0.09200000 235 240 243 38596.000000
-0.08775000 5.31099987 0.09325000 235 240 243 38257.000000
-0.08775000 5.31150007 0.09425000 233 241 244 38917.000000
-0.08775000 5.31075001 0.09525000 233 241 244 37939.000000
-0.08775000 5.31099987 0.09625000 233 241 244 38100.000000
-0.08775000 5.31099987 0.09725000 233 241 244 39775.000000
-0.08775000 5.31075001 0.09825000 233 241 244 39257.000000
-0.08775000 5.30900002 0.09900000 232 241 246 36867.000000
-0.08775000 5.30975008 0.10000000 232 241 246 35142.000000
-0.08775000 5.30975008 0.10100000 232 241 246 35003.000000
-0.08775000 5.30975008 0.10200000 232 241 246 34082.000000
-0.08775000 5.31199980 0.10325000 232 241 248 34989.000000
-0.08775000 5.31075001 0.10425000 232 241 248 35685.000000
-0.08775000 5.31050014 0.10525000 232 241 248 35275.000000
-0.08775000 5.31150007 0.10625000 232 241 248 35267.000000
-0.08775000 5.31024981 0.10725000 233 240 246 33078.000000
-0.08775000 5.30999994 0.10825000 233 240 246 33200.000000
-0.08775000 5.31075001 0.10925000 233 240 246 30814.000000
-0.08775000 5.30999994 0.11025000 232 237 241 25653.000000
-0.08775000 5.30999994 0.11125000 232 237 241 16414.000000
-0.08775000 5.31150007 0.11225000 235 239 242 7064.000000
-0.08650000 5.29699993 -0.00525000 121 111 109 2650.000000
-0.08650000 5.29374981 -0.00425000 121 111 109 3660.000000
-0.08650000 5.29199982 -0.00325000 121 111 109 4064.000000
-0.08650000 5.29250002 -0.00225000 105 96 97 3978.000000
-0.08650000 5.29400015 -0.00125000 105 96 97 4321.000000
-0.08650000 5.30375004 -0.00025000 96 89 96 3750.000000
-0.08650000 5.30499983 0.00250000 101 96 103 13592.000000
-0.08650000 5.30299997 0.00350000 133 132 140 25267.000000
-0.08650000 5.30324984 0.00450000 133 132 140 33878.000000
-0.08650000 5.30399990 0.00550000 190 190 198 34650.000000
-0.08650000 5.30275011 0.00650000 190 190 198 34264.000000
-0.08650000 5.30275011 0.00750000 190 190 198 36185.000000
-0.08650000 5.30350018 0.00850000 227 230 237 35610.000000
-0.08650000 5.30450010 0.00950000 227 230 237 36760.000000
-0.08650000 5.30375004 0.01050000 231 236 240 38489.000000
-0.08650000 5.30299997 0.01150000 231 236 240 36921.000000
-0.08650000 5.30324984 0.01250000 232 237 241 37221.000000
-0.08650000 5.30424976 0.01350000 232 237 241 38814.000000
-0.08650000 5.30474997 0.01450000 233 241 243 38157.000000
-0.08675000 5.30625010 0.01550000 233 241 243 37664.000000
-0.08650000 5.30474997 0.01650000 228 236 238 36457.000000
-0.08650000 5.30399990 0.01750000 228 236 238 35467.000000
-0.08650000 5.30399990 0.01850000 228 236 238 35889.000000
-0.08650000 5.30275011 0.01950000 234 239 243 37378.000000
-0.08650000 5.30399990 0.02050000 234 239 243 37214.000000
-0.08650000 5.30499983 0.02150000 234 239 245 37517.000000
-0.08675000 5.30574989 0.02250000 234 239 245 36307.000000
-0.08650000 5.30424976 0.02350000 234 239 243 36032.000000
-0.08650000 5.30499983 0.02450000 234 239 243 35878.000000
-0.08650000 5.30474997 0.02550000 234 239 243 35739.000000
-0.08650000 5.30399990 0.02650000 234 239 243 36175.000000
-0.08650000 5.30299997 0.02750000 234 239 243 36471.000000
-0.08650000 5.30424976 0.02850000 234 239 243 37835.000000
-0.08650000 5.30474997 0.02950000 234 239 243 38157.000000
-0.08650000 5.30399990 0.03050000 234 239 243 36914.000000
-0.08650000 5.30499983 0.03150000 234 239 243 36314.000000
-0.08650000 5.30550003 0.03250000 234 239 245 37203.000000
-0.08675000 5.30625010 0.03350000 234 239 245 38796.000000
-0.08675000 5.30625010 0.03450000 234 239 245 38142.000000
-0.08650000 5.30399990 0.03550000 234 239 245 35742.000000
-0.08650000 5.30375004 0.03625000 231 236 242 34132.000000
-0.08650000 5.30474997 0.03750000 231 236 242 32882.000000
-0.08675000 5.30574989 0.03850000 229 233 242 29639.000000
-0.08650000 5.30474997 0.03950000 229 233 242 25689.000000
-0.08650000 5.30450010 0.04050000 229 233 242 19610.000000
-0.08675000 5.30649996 0.04150000 211 215 227 15292.000000
-0.08650000 5.30474997 0.04250000 211 215 227 11035.000000
-0.08650000 5.30499983 0.04350000 170 173 188 7910.000000
-0.08650000 5.30499983 0.04450000 170 173 188 7239.000000
-0.08675000 5.30574989 0.04550000 122 125 144 7110.000000
-0.08675000 5.30875015 0.04650000 122 125 144 7646.000000
-0.08675000 5.30700016 0.04750000 90 92 113 7439.000000
-0.08675000 5.30625010 0.04850000 90 92 113 7346.000000
-0.08675000 5.30574989 0.04950000 90 92 113 7453.000000
-0.08650000 5.30550003 0.05050000 83 85 108 6853.000000
-0.08675000 5.30924988 0.05150000 83 85 108 7089.000000
-0.08675000 5.30775023 0.05250000 91 88 115 7314.000000
-0.08675000 5.30725002 0.05350000 91 88 115 7782.000000
-0.08675000 5.30749989 0.05450000 94 85 116 8303.000000
-0.08675000 5.30849981 0.05550000 94 85 116 7839.000000
-0.08675000 5.30600023 0.05650000 90 79 111 7825.000000
-0.08675000 5.30999994 0.05750000 90 79 111 7514.000000
-0.08675000 5.30849981 0.05850000 87 76 108 7396.000000
-0.08675000 5.30824995 0.05950000 87 76 108 7478.000000
-0.08675000 5.30674982 0.06050000 87 76 108 7578.000000
-0.08675000 5.30924988 0.06150000 89 78 108 7450.000000
-0.08675000 5.30824995 0.06250000 89 78 108 7607.000000
-0.08675000 5.30824995 0.06350000 92 83 110 7700.000000
-0.08675000 5.30999994 0.06450000 92 83 110 8232.000000
-0.08675000 5.30849981 0.06550000 92 87 110 7875.000000
-0.08675000 5.30849981 0.06650000 92 87 110 7249.000000
-0.08675000 5.30824995 0.06750000 95 90 113 7107.000000
-0.08675000 5.30924988 0.06850000 95 90 113 7450.000000
-0.08675000 5.30800009 0.06950000 96 93 114 7335.000000
-0.08675000 5.30849981 0.07050000 96 93 114 7832.000000
-0.08675000 5.30999994 0.07150000 96 93 114 9257.000000
-0.08675000 5.30900002 0.07250000 98 97 115 14753.000000
-0.08675000 5.30900002 0.07350000 98 97 115 21814.000000
-0.08675000 5.30924988 0.07450000 132 134 149 27371.000000
-0.08675000 5.30875015 0.07550000 132 134 149 32732.000000
-0.08675000 5.30875015 0.07650000 181 185 197 36875.000000
-0.08675000 5.30824995 0.07750000 181 185 197 37646.000000
-0.08675000 5.30924988 0.07850000 220 224 235 36421.000000
-0.08675000 5.30800009 0.07950000 220 224 235 37489.000000
-0.08675000 5.30749989 0.08050000 220 224 235 38614.000000
-0.08675000 5.30900002 0.08150000 232 239 249 40150.000000
-0.08675000 5.30824995 0.08250000 232 239 249 37489.000000
-0.08675000 5.30900002 0.08350000 232 239 247 37171.000000
-0.08675000 5.30824995 0.08450000 232 239 247 36575.000000
-0.08675000 5.30900002 0.08550000 230 239 246 36132.000000
-0.08675000 5.30849981 0.08650000 230 239 246 36725.000000
-0.08675000 5.30800009 0.08750000 234 241 247 35853.000000
-0.08675000 5.30775023 0.08850000 234 241 247 36000.000000
-0.08675000 5.30824995 0.08950000 235 240 244 36425.000000
-0.08675000 5.30975008 0.09050000 235 240 244 36414.000000
-0.08675000 5.30950022 0.09150000 235 240 244 36867.000000
-0.08675000 5.31050014 0.09250000 235 240 243 36407.000000
-0.08675000 5.31050014 0.09350000 235 240 243 37007.000000
-0.08675000 5.30999994 0.09450000 233 241 244 37475.000000
-0.08675000 5.30999994 0.09550000 233 241 244 36267.000000
-0.08675000 5.31099987 0.09650000 233 241 244 38257.000000
-0.08675000 5.30950022 0.09750000 233 241 244 37785.000000
-0.08675000 5.30900002 0.09850000 232 241 246 35985.000000
-0.08675000 5.30924988 0.09950000 232 241 246 35985.000000
-0.08675000 5.30999994 0.10050000 232 241 246 34603.000000
-0.08675000 5.31050014 0.10150000 232 241 246 34732.000000
-0.08675000 5.31075001 0.10250000 232 241 246 34860.000000
-0.08675000 5.31174994 0.10350000 232 241 248 35264.000000
-0.08675000 5.31050014 0.10450000 232 241 248 35832.000000
-0.08675000 5.31075001 0.10550000 232 241 248 34200.000000
-0.08675000 5.31150007 0.10650000 232 241 248 34325.000000
-0.08675000 5.31099987 0.10750000 233 240 246 32478.000000
-0.08675000 5.31099987 0.10850000 233 240 246 32714.000000
-0.08675000 5.31174994 0.10950000 232 237 241 34067.000000
-0.08675000 5.31075001 0.11050000 232 237 241 29310.000000
-0.08675000 5.31125021 0.11150000 235 239 242 18053.000000
-0.08675000 5.31750011 0.11275000 235 239 242 1696.000000
-0.08550000 5.29974985 -0.00675000 111 97 97 1053.000000
-0.08550000 5.29199982 -0.00575000 111 97 97 3246.000000
-0.08550000 5.29225016 -0.00475000 104 91 98 3903.000000
-0.08550000 5.29225016 -0.00375000 104 91 98 3696.000000
-0.08550000 5.29425001 -0.00275000 95 83 93 3882.000000
-0.08550000 5.29675007 -0.00175000 95 83 93 4314.000000
-0.08550000 5.29475021 -0.00075000 91 83 96 3567.000000
-0.08550000 5.30450010 0.00200000 109 103 117 2482.000000
-0.08550000 5.30375004 0.00300000 153 149 164 26446.000000
-0.08550000 5.30375004 0.00400000 153 149 164 35607.000000
-0.08550000 5.30424976 0.00500000 153 149 164 38317.000000
-0.08550000 5.30350018 0.00600000 208 206 220 37842.000000
-0.08550000 5.30424976 0.00700000 208 206 220 36760.000000
-0.08550000 5.30375004 0.00800000 234 234 246 36614.000000
-0.08550000 5.30299997 0.00900000 234 234 246 37689.000000
-0.08550000 5.30299997 0.01000000 232 235 244 38657.000000
-0.08550000 5.30450010 0.01100000 232 235 244 38814.000000
-0.08550000 5.30450010 0.01200000 234 238 247 38646.000000
-0.08550000 5.30450010 0.01300000 234 238 247 40010.000000
-0.08550000 5.30375004 0.01400000 234 238 247 39842.000000
-0.08550000 5.30450010 0.01500000 234 241 247 38314.000000
-0.08550000 5.30399990 0.01600000 234 241 247 37835.000000
-0.08550000 5.30499983 0.01700000 227 234 240 38478.000000
-0.08550000 5.30350018 0.01800000 227 234 240 37685.000000
-0.08550000 5.30375004 0.01900000 234 239 245 35332.000000
-0.08550000 5.30450010 0.02000000 234 239 245 37210.000000
-0.08550000 5.30499983 0.02100000 234 239 245 36907.000000
-0.08575000 5.30525017 0.02200000 234 239 245 35460.000000
-0.08575000 5.30525017 0.02300000 234 239 245 37514.000000
-0.08550000 5.30525017 0.02400000 234 239 245 37989.000000
-0.08575000 5.30600023 0.02500000 234 239 245 37667.000000
-0.08575000 5.30574989 0.02600000 234 239 245 35592.000000
-0.08550000 5.30525017 0.02700000 234 239 245 35046.000000
-0.08550000 5.30450010 0.02800000 234 239 243 34514.000000
-0.08550000 5.30525017 0.02900000 234 239 243 36167.000000
-0.08550000 5.30499983 0.03000000 234 239 243 35735.000000
-0.08575000 5.30625010 0.03100000 234 239 243 39132.000000
-0.08575000 5.30574989 0.03200000 234 239 243 38150.000000
-0.08550000 5.30499983 0.03300000 234 239 243 37671.000000
-0.08575000 5.30550003 0.03400000 234 239 245 38803.000000
-0.08575000 5.30600023 0.03500000 234 239 245 38300.000000
-0.08575000 5.30550003 0.03600000 234 239 245 37989.000000
-0.08575000 5.30550003 0.03700000 233 238 244 35317.000000
-0.08575000 5.30674982 0.03800000 233 238 244 33353.000000
-0.08575000 5.30649996 0.03900000 235 239 248 31939.000000
-0.08575000 5.30649996 0.04000000 235 239 248 28071.000000
-0.08575000 5.30674982 0.04100000 236 240 251 22042.000000
-0.08575000 5.30600023 0.04200000 236 240 251 16553.000000
-0.08575000 5.30674982 0.04300000 218 222 234 12242.000000
-0.08575000 5.30800009 0.04400000 218 222 234 9489.000000
-0.08575000 5.30800009 0.04500000 173 176 191 8617.000000
-0.08575000 5.30550003 0.04600000 173 176 191 7596.000000
-0.08575000 5.30849981 0.04700000 173 176 191 7832.000000
-0.08575000 5.30574989 0.04800000 120 123 140 7471.000000
-0.08575000 5.30900002 0.04900000 120 123 140 8121.000000
-0.08575000 5.30800009 0.05000000 90 93 112 8117.000000
-0.08575000 5.30700016 0.05100000 90 93 112 7475.000000
-0.08575000 5.30625010 0.05200000 87 88 109 7403.000000
-0.08575000 5.30700016 0.05300000 87 88 109 7453.000000
-0.08575000 5.30700016 0.05400000 92 86 114 7099.000000
-0.08575000 5.30950022 0.05500000 92 86 114 7021.000000
-0.08575000 5.30674982 0.05600000 92 86 114 7967.000000
-0.08575000 5.30700016 0.05700000 86 77 106 7642.000000
-0.08575000 5.30700016 0.05800000 86 77 106 7325.000000
-0.08575000 5.30849981 0.05900000 84 75 104 6992.000000
-0.08575000 5.30700016 0.06000000 84 75 104 6564.000000
-0.08575000 5.31050014 0.06100000 88 82 110 6421.000000
-0.08575000 5.30824995 0.06200000 88 82 110 7567.000000
-0.08575000 5.30999994 0.06300000 89 83 109 7878.000000
-0.08575000 5.30775023 0.06400000 89 83 109 8192.000000
-0.08575000 5.30775023 0.06500000 85 81 104 7989.000000
-0.08575000 5.30849981 0.06600000 85 81 104 7457.000000
-0.08575000 5.30800009 0.06700000 85 81 104 7528.000000
-0.08575000 5.31050014 0.06800000 90 86 109 7360.000000
-0.08575000 5.30975008 0.06900000 90 86 109 7321.000000
-0.08575000 5.30749989 0.07000000 100 98 119 7889.000000
-0.08575000 5.30950022 0.07100000 100 98 119 12135.000000
-0.08575000 5.30875015 0.07200000 131 130 148 20032.000000
-0.08575000 5.30875015 0.07300000 131 130 148 27792.000000
-0.08575000 5.30900002 0.07400000 183 185 200 33210.000000
-0.08575000 5.30950022 0.07500000 183 185 200 36867.000000
-0.08575000 5.30900002 0.07600000 230 234 246 38117.000000
-0.08575000 5.30900002 0.07700000 230 234 246 37639.000000
-0.08575000 5.30800009 0.07800000 230 234 246 35435.000000
-0.08575000 5.30775023 0.07900000 240 244 255 34885.000000
-0.08575000 5.30900002 0.08000000 240 244 255 37171.000000
-0.08575000 5.30900002 0.08100000 232 239 249 38603.000000
-0.08575000 5.30950022 0.08200000 232 239 249 38439.000000
-0.08575000 5.30950022 0.08300000 233 240 248 38600.000000
-0.08575000 5.30924988 0.08400000 233 240 248 38117.000000
-0.08575000 5.30824995 0.08500000 236 243 251 35017.000000
-0.08575000 5.30849981 0.08600000 236 243 251 36425.000000
-0.08575000 5.30875015 0.08700000 232 239 245 34614.000000
-0.08575000 5.30900002 0.08800000 232 239 245 34478.000000
-0.08575000 5.30875015 0.08900000 232 239 245 35846.000000
-0.08575000 5.30924988 0.09000000 235 240 244 36717.000000
-0.08575000 5.30975008 0.09100000 235 240 244 38110.000000
-0.08575000 5.30950022 0.09200000 235 240 243 38110.000000
-0.08575000 5.30999994 0.09325000 235 240 243 36710.000000
-0.08575000 5.30975008 0.09400000 233 241 244 35007.000000
-0.08575000 5.30824995 0.09500000 233 241 244 36135.000000
-0.08575000 5.30975008 0.09600000 233 241 244 35007.000000
-0.08575000 5.30924988 0.09700000 233 241 244 34607.000000
-0.08575000 5.31050014 0.09800000 233 241 244 34467.000000
-0.08575000 5.30900002 0.09900000 232 241 246 37635.000000
-0.08575000 5.31174994 0.10025000 232 241 246 38578.000000
-0.08575000 5.30999994 0.10100000 232 241 246 37782.000000
-0.08575000 5.31099987 0.10225000 232 241 246 35971.000000
-0.08575000 5.31075001 0.10325000 232 241 248 35975.000000
-0.08575000 5.31300020 0.10425000 232 241 248 38082.000000
-0.08575000 5.31150007 0.10525000 232 241 248 37303.000000
-0.08575000 5.31075001 0.10625000 232 241 248 36853.000000
-0.08575000 5.31075001 0.10725000 234 241 247 33692.000000
-0.08575000 5.31050014 0.10825000 234 241 247 32957.000000
-0.08575000 5.31300020 0.10925000 234 241 247 34057.000000
-0.08575000 5.31150007 0.11025000 234 239 245 32128.000000
-0.08575000 5.31150007 0.11125000 234 239 245 24007.000000
-0.08575000 5.31099987 0.11225000 237 240 245 12100.000000
-0.08450000 5.29500008 -0.00925000 109 94 91 1875.000000
-0.08450000 5.29150009 -0.00825000 109 94 91 2164.000000
-0.08450000 5.29449987 -0.00725000 111 97 97 2867.000000
-0.08425000 5.28924990 -0.00625000 111 97 97 3850.000000
-0.08450000 5.29174995 -0.00525000 104 91 98 3667.000000
-0.08450000 5.29075003 -0.00425000 104 91 98 3589.000000
-0.08450000 5.29325008 -0.00325000 104 91 98 3828.000000
-0.08450000 5.29225016 -0.00225000 95 83 93 4250.000000
-0.08450000 5.29374981 -0.00125000 95 83 93 4057.000000
-0.08450000 5.30124998 -0.00025000 91 83 96 2410.000000
-0.08450000 5.30324984 0.00150000 109 103 117 7525.000000
-0.08450000 5.30424976 0.00250000 109 103 117 19489.000000
-0.08450000 5.30424976 0.00350000 153 149 164 32532.000000
-0.08450000 5.30324984 0.00450000 153 149 164 37842.000000
-0.08450000 5.30375004 0.00550000 208 206 220 35889.000000
-0.08450000 5.30375004 0.00650000 208 206 220 36321.000000
-0.08450000 5.30350018 0.00750000 208 206 220 38003.000000
-0.08450000 5.30424976 0.00850000 234 234 246 39492.000000
-0.08450000 5.30375004 0.00950000 234 234 246 38817.000000
-0.08450000 5.30275011 0.01050000 232 235 244 36625.000000
-0.08475000 5.30525017 0.01150000 232 235 244 36603.000000
-0.08450000 5.30474997 0.01250000 234 238 247 37210.000000
-0.08450000 5.30375004 0.01350000 234 238 247 38164.000000
-0.08450000 5.30474997 0.01450000 234 241 247 39835.000000
-0.08450000 5.30424976 0.01550000 234 241 247 39839.000000
-0.08450000 5.30399990 0.01650000 227 234 240 38485.000000
-0.08475000 5.30600023 0.01750000 227 234 240 37200.000000
-0.08450000 5.30424976 0.01850000 227 234 240 36175.000000
-0.08450000 5.30499983 0.01950000 234 239 245 37832.000000
-0.08450000 5.30424976 0.02050000 234 239 245 37064.000000
-0.08450000 5.30450010 0.02150000 234 239 245 35885.000000
-0.08450000 5.30399990 0.02250000 234 239 245 36175.000000
-0.08450000 5.30499983 0.02350000 234 239 245 36757.000000
-0.08475000 5.30499983 0.02450000 234 239 245 37057.000000
-0.08475000 5.30600023 0.02550000 234 239 245 35175.000000
-0.08450000 5.30474997 0.02650000 234 239 245 34382.000000
-0.08475000 5.30525017 0.02750000 234 239 243 35596.000000
-0.08475000 5.30550003 0.02850000 234 239 243 36753.000000
-0.08475000 5.30525017 0.02950000 234 239 243 38475.000000
-0.08475000 5.30700016 0.03050000 234 239 243 38139.000000
-0.08475000 5.30625010 0.03150000 234 239 243 38146.000000
-0.08475000 5.30550003 0.03250000 234 239 243 38307.000000
-0.08475000 5.30574989 0.03350000 234 239 243 37825.000000
-0.08475000 5.30600023 0.03450000 234 239 245 37196.000000
-0.08475000 5.30550003 0.03550000 234 239 245 37053.000000
-0.08450000 5.30399990 0.03650000 233 238 244 35885.000000
-0.08450000 5.30399990 0.03725000 233 238 244 34782.000000
-0.08450000 5.30499983 0.03850000 233 238 244 32407.000000
-0.08475000 5.30625010 0.03950000 235 239 248 33478.000000
-0.08475000 5.30574989 0.04050000 235 239 248 32875.000000
-0.08475000 5.30574989 0.04150000 236 240 251 29350.000000
-0.08475000 5.30550003 0.04250000 236 240 251 21678.000000
-0.08450000 5.30499983 0.04350000 218 222 234 15117.000000
-0.08450000 5.30474997 0.04450000 218 222 234 10521.000000
-0.08475000 5.30749989 0.04550000 173 176 191 8464.000000
-0.08475000 5.30625010 0.04650000 173 176 191 7585.000000
-0.08475000 5.30674982 0.04750000 120 123 140 7967.000000
-0.08475000 5.30700016 0.04850000 120 123 140 7685.000000
-0.08475000 5.30649996 0.04950000 120 123 140 7560.000000
-0.08475000 5.30649996 0.05050000 90 93 112 7571.000000
-0.08475000 5.30800009 0.05150000 90 93 112 7217.000000
-0.08475000 5.30824995 0.05250000 87 88 109 7810.000000
-0.08475000 5.30700016 0.05350000 87 88 109 8153.000000
-0.08475000 5.30900002 0.05450000 92 86 114 7564.000000
-0.08475000 5.30824995 0.05550000 92 86 114 7389.000000
-0.08475000 5.30749989 0.05650000 86 77 106 7457.000000
-0.08475000 5.30749989 0.05750000 86 77 106 7542.000000
-0.08475000 5.30550003 0.05850000 84 75 104 7317.000000
-0.08475000 5.30700016 0.05950000 84 75 104 6342.000000
-0.08475000 5.30900002 0.06050000 84 75 104 6100.000000
-0.08475000 5.30875015 0.06150000 88 82 110 6425.000000
-0.08475000 5.30849981 0.06250000 88 82 110 7082.000000
-0.08475000 5.30824995 0.06350000 89 83 109 8182.000000
-0.08475000 5.30999994 0.06450000 89 83 109 7932.000000
-0.08475000 5.30700016 0.06550000 85 81 104 6371.000000
-0.08475000 5.30700016 0.06650000 85 81 104 6396.000000
-0.08475000 5.30900002 0.06750000 90 86 109 7064.000000
-0.08475000 5.31024981 0.06850000 90 86 109 8010.000000
-0.08475000 5.30824995 0.06950000 100 98 119 8492.000000
-0.08475000 5.30775023 0.07050000 100 98 119 12128.000000
-0.08475000 5.30875015 0.07150000 100 98 119 18821.000000
-0.08475000 5.30900002 0.07250000 131 130 148 27964.000000
-0.08475000 5.30824995 0.07350000 131 130 148 36728.000000
-0.08475000 5.30824995 0.07450000 183 185 200 41067.000000
-0.08475000 5.30800009 0.07550000 183 185 200 40517.000000
-0.08475000 5.30875015 0.07650000 230 234 246 39110.000000
-0.08475000 5.30924988 0.07750000 230 234 246 38603.000000
-0.08475000 5.30875015 0.07850000 240 244 255 37021.000000
-0.08475000 5.30800009 0.07950000 240 244 255 36428.000000
-0.08475000 5.30950022 0.08050000 240 244 255 38114.000000
-0.08475000 5.31024981 0.08150000 232 239 249 36710.000000
-0.08475000 5.30900002 0.08250000 232 239 249 39107.000000
-0.08475000 5.30900002 0.08350000 233 240 248 39796.000000
-0.08475000 5.30875015 0.08450000 233 240 248 37328.000000
-0.08475000 5.30999994 0.08550000 236 243 251 35557.000000
-0.08475000 5.30975008 0.08650000 236 243 251 35696.000000
-0.08475000 5.30975008 0.08750000 232 239 245 36714.000000
-0.08475000 5.30975008 0.08850000 232 239 245 35839.000000
-0.08475000 5.30950022 0.08950000 235 240 244 35985.000000
-0.08475000 5.31024981 0.09050000 235 240 244 36410.000000
-0.08475000 5.30999994 0.09150000 235 240 244 37475.000000
-0.08475000 5.30999994 0.09250000 235 240 243 37785.000000
-0.08475000 5.31099987 0.09350000 235 240 243 37153.000000
-0.08475000 5.30999994 0.09450000 233 241 244 37160.000000
-0.08475000 5.31075001 0.09550000 233 241 244 36707.000000
-0.08475000 5.30975008 0.09650000 233 241 244 37632.000000
-0.08475000 5.31075001 0.09750000 233 241 244 36557.000000
-0.08475000 5.30999994 0.09850000 232 241 246 36410.000000
-0.08475000 5.30999994 0.09950000 232 241 246 38592.000000
-0.08475000 5.30900002 0.10050000 232 241 246 38271.000000
-0.08475000 5.30999994 0.10150000 232 241 246 34864.000000
-0.08475000 5.30975008 0.10250000 232 241 246 32721.000000
-0.08475000 5.31075001 0.10350000 232 241 248 32953.000000
-0.08475000 5.31075001 0.10450000 232 241 248 34200.000000
-0.08475000 5.31024981 0.10550000 232 241 248 34732.000000
-0.08475000 5.31150007 0.10650000 232 241 248 34460.000000
-0.08475000 5.31274986 0.10750000 234 241 247 34185.000000
-0.08475000 5.31099987 0.10850000 234 241 247 34071.000000
-0.08475000 5.31199980 0.10950000 234 239 245 32946.000000
-0.08475000 5.31150007 0.11050000 234 239 245 29696.000000
-0.08475000 5.31099987 0.11150000 237 240 245 20564.000000
-0.08475000 5.31075001 0.11250000 237 240 245 3946.000000
-0.08350000 5.29199982 -0.02650000 136 117 110 1921.000000
-0.08350000 5.29475021 -0.02575000 136 117 110 2428.000000
-0.08325000 5.29024982 -0.02450000 110 91 87 2592.000000
-0.08350000 5.29250002 -0.02350000 110 91 87 2825.000000
-0.08325000 5.29099989 -0.02250000 96 78 78 2900.000000
-0.08350000 5.29624987 -0.02175000 96 78 78 2757.000000
-0.08350000 5.29349995 -0.02075000 96 77 79 2985.000000
-0.08350000 5.29374981 -0.01975000 96 77 79 3460.000000
-0.08350000 5.29524994 -0.01875000 94 78 79 3346.000000
-0.08325000 5.29125023 -0.01750000 94 78 79 3535.000000
-0.08325000 5.29125023 -0.01675000 94 78 79 3507.000000
-0.08350000 5.29325008 -0.01575000 94 76 74 2957.000000
-0.08350000 5.29500008 -0.01475000 94 76 74 2221.000000
-0.08350000 5.29400015 -0.01375000 93 78 75 1350.000000
-0.08350000 5.30100012 -0.01275000 93 78 75 1089.000000
-0.08350000 5.30324984 -0.01175000 91 75 76 1085.000000
-0.08350000 5.29524994 -0.01075000 91 75 76 1339.000000
-0.08350000 5.29675007 -0.00975000 96 81 86 2042.000000
-0.08350000 5.29475021 -0.00875000 96 81 86 2614.000000
-0.08325000 5.29099989 -0.00775000 96 81 86 3414.000000
-0.08350000 5.29425001 -0.00675000 103 90 99 4314.000000
-0.08350000 5.29225016 -0.00575000 103 90 99 3925.000000
-0.08350000 5.29300022 -0.00475000 101 89 101 3803.000000
-0.08350000 5.29250002 -0.00375000 101 89 101 4232.000000
-0.08350000 5.29225016 -0.00275000 94 83 99 4442.000000
-0.08350000 5.29325008 -0.00175000 94 83 99 3925.000000
-0.08350000 5.29874992 -0.00075000 93 84 103 2946.000000
-0.08350000 5.30124998 0.00100000 115 107 128 2435.000000
-0.08350000 5.30375004 0.00200000 115 107 128 20985.000000
-0.08350000 5.30375004 0.00300000 168 165 184 32767.000000
-0.08350000 5.30275011 0.00400000 168 165 184 37378.000000
-0.08350000 5.30249977 0.00500000 168 165 184 37075.000000
-0.08350000 5.30375004 0.00600000 221 220 238 36614.000000
-0.08350000 5.30375004 0.00700000 221 220 238 37067.000000
-0.08350000 5.30375004 0.00800000 234 236 251 37685.000000
-0.08350000 5.30375004 0.00900000 234 236 251 37067.000000
-0.08350000 5.30350018 0.01000000 230 234 246 38003.000000
-0.08350000 5.30324984 0.01100000 230 234 246 37375.000000
-0.08350000 5.30424976 0.01200000 236 240 251 37367.000000
-0.08350000 5.30550003 0.01300000 236 240 251 38803.000000
-0.08350000 5.30474997 0.01400000 235 242 252 37521.000000
-0.08350000 5.30499983 0.01500000 235 242 252 38478.000000
-0.08350000 5.30375004 0.01600000 235 242 252 38817.000000
-0.08350000 5.30424976 0.01700000 227 234 242 36764.000000
-0.08350000 5.30550003 0.01800000 227 234 242 38307.000000
-0.08350000 5.30600023 0.01900000 234 238 247 40182.000000
-0.08350000 5.30424976 0.02000000 234 238 247 39150.000000
-0.08350000 5.30450010 0.02100000 234 239 245 38157.000000
-0.08350000 5.30450010 0.02200000 234 239 245 36171.000000
-0.08350000 5.30450010 0.02300000 234 239 245 38157.000000
-0.08350000 5.30499983 0.02400000 234 239 245 37207.000000
-0.08350000 5.30474997 0.02500000 234 239 245 37675.000000
-0.08350000 5.30499983 0.02600000 234 239 245 36757.000000
-0.08350000 5.30550003 0.02700000 234 239 245 36021.000000
-0.08350000 5.30525017 0.02800000 234 239 243 35596.000000
-0.08350000 5.30424976 0.02900000 234 239 243 37210.000000
-0.08350000 5.30525017 0.03000000 234 239 243 37671.000000
-0.08350000 5.30574989 0.03100000 234 239 243 38471.000000
-0.08350000 5.30574989 0.03200000 234 239 243 39307.000000
-0.08350000 5.30574989 0.03300000 234 239 243 40542.000000
-0.08350000 5.30474997 0.03400000 234 239 243 38478.000000
-0.08350000 5.30625010 0.03500000 234 239 243 35450.000000
-0.08350000 5.30600023 0.03600000 234 239 243 34503.000000
-0.08350000 5.30625010 0.03700000 236 241 245 34503.000000
-0.08350000 5.30725002 0.03800000 236 241 245 33721.000000
-0.08350000 5.30550003 0.03900000 233 238 244 32289.000000
-0.08350000 5.30525017 0.04000000 233 238 244 33239.000000
-0.08350000 5.30600023 0.04100000 234 238 247 33478.000000
-0.08350000 5.30550003 0.04200000 234 238 247 29539.000000
-0.08350000 5.30674982 0.04300000 234 238 249 24232.000000
-0.08350000 5.30700016 0.04400000 234 238 249 18592.000000
-0.08350000 5.30749989 0.04500000 216 220 232 12996.000000
-0.08350000 5.30525017 0.04600000 216 220 232 9057.000000
-0.08350000 5.30499983 0.04700000 216 220 232 8089.000000
-0.08350000 5.30625010 0.04800000 173 176 191 7950.000000
-0.08350000 5.30649996 0.04900000 173 176 191 7842.000000
-0.08350000 5.30725002 0.05000000 121 124 141 7564.000000
-0.08375000 5.30824995 0.05100000 121 124 141 7310.000000
-0.08350000 5.30725002 0.05200000 89 90 110 7657.000000
-0.08375000 5.30824995 0.05300000 89 90 110 8146.000000
-0.08350000 5.30600023 0.05400000 88 86 110 7542.000000
-0.08375000 5.30875015 0.05500000 88 86 110 7532.000000
-0.08350000 5.30775023 0.05600000 88 86 110 7750.000000
-0.08350000 5.30749989 0.05700000 84 80 107 7878.000000
-0.08350000 5.30725002 0.05800000 84 80 107 7692.000000
-0.08350000 5.30700016 0.05900000 86 82 109 7210.000000
-0.08350000 5.30649996 0.06000000 86 82 109 7325.000000
-0.08375000 5.30900002 0.06100000 92 88 113 7357.000000
-0.08350000 5.30700016 0.06200000 92 88 113 7296.000000
-0.08350000 5.30649996 0.06300000 87 85 107 6882.000000
-0.08375000 5.30924988 0.06400000 87 85 107 6896.000000
-0.08375000 5.30800009 0.06500000 81 79 100 6600.000000
-0.08375000 5.30924988 0.06600000 81 79 100 6400.000000
-0.08375000 5.30849981 0.06700000 81 79 100 6760.000000
-0.08350000 5.30749989 0.06800000 96 94 115 7846.000000
-0.08375000 5.30824995 0.06900000 96 94 115 10950.000000
-0.08350000 5.30725002 0.07000000 119 120 138 16517.000000
-0.08350000 5.30749989 0.07100000 119 120 138 21464.000000
-0.08375000 5.30824995 0.07200000 187 189 204 29142.000000
-0.08350000 5.30725002 0.07300000 187 189 204 35025.000000
-0.08350000 5.30775023 0.07400000 218 220 233 37807.000000
-0.08375000 5.30900002 0.07500000 218 220 233 38275.000000
-0.08375000 5.30950022 0.07600000 237 241 252 36567.000000
-0.08375000 5.30824995 0.07700000 237 241 252 35853.000000
-0.08375000 5.30800009 0.07800000 237 241 252 37335.000000
-0.08375000 5.30975008 0.07900000 233 237 246 38267.000000
-0.08375000 5.30975008 0.08000000 233 237 246 38114.000000
-0.08375000 5.30924988 0.08100000 227 234 242 37639.000000
-0.08375000 5.30900002 0.08200000 227 234 242 38603.000000
-0.08375000 5.30849981 0.08300000 235 242 248 38121.000000
-0.08375000 5.30849981 0.08400000 235 242 248 37642.000000
-0.08375000 5.30950022 0.08500000 238 245 251 37635.000000
-0.08375000 5.30875015 0.08600000 238 245 251 35014.000000
-0.08375000 5.30975008 0.08700000 229 237 240 32489.000000
-0.08375000 5.30975008 0.08800000 229 237 240 33953.000000
-0.08375000 5.30950022 0.08900000 229 237 240 37167.000000
-0.08375000 5.31050014 0.09025000 235 240 243 35003.000000
-0.08375000 5.31050014 0.09100000 235 240 243 36410.000000
-0.08375000 5.30975008 0.09200000 235 240 243 37475.000000
-0.08375000 5.30999994 0.09325000 235 240 243 37317.000000
-0.08375000 5.31099987 0.09425000 233 241 244 38753.000000
-0.08375000 5.31099987 0.09525000 233 241 244 39432.000000
-0.08375000 5.31050014 0.09625000 233 241 244 39432.000000
-0.08375000 5.31150007 0.09725000 233 241 244 37460.000000
-0.08375000 5.31050014 0.09800000 233 241 244 37782.000000
-0.08375000 5.31050014 0.09900000 232 241 246 37157.000000
-0.08375000 5.30950022 0.10000000 232 241 246 37950.000000
-0.08375000 5.31174994 0.10125000 232 241 246 36253.000000
-0.08375000 5.31174994 0.10225000 232 241 246 33685.000000
-0.08375000 5.31075001 0.10325000 232 241 248 34996.000000
-0.08375000 5.31174994 0.10425000 232 241 248 35128.000000
-0.08375000 5.31125021 0.10525000 232 241 248 35682.000000
-0.08375000 5.31050014 0.10625000 232 241 248 35275.000000
-0.08375000 5.31050014 0.10725000 233 240 246 35414.000000
-0.08375000 5.31024981 0.10825000 233 240 246 34732.000000
-0.08375000 5.31150007 0.10925000 233 240 246 35967.000000
-0.08375000 5.31199980 0.11025000 233 238 242 34192.000000
-0.08375000 5.31150007 0.11125000 233 238 242 29025.000000
-0.08375000 5.31274986 0.11225000 238 242 245 19489.000000
-0.08375000 5.31325006 0.11325000 238 242 245 8589.000000
-0.08250000 5.29449987 -0.02725000 136 117 110 2721.000000
-0.08250000 5.29500008 -0.02625000 136 117 110 2921.000000
-0.08250000 5.29199982 -0.02525000 110 91 87 2971.000000
-0.08250000 5.28999996 -0.02425000 110 91 87 3271.000000
-0.08250000 5.29400015 -0.02325000 110 91 87 3510.000000
-0.08250000 5.29075003 -0.02225000 96 78 78 3296.000000
-0.08250000 5.29325008 -0.02125000 96 78 78 3442.000000
-0.08250000 5.29274988 -0.02025000 96 77 79 3939.000000
-0.08250000 5.29174995 -0.01925000 96 77 79 4503.000000
-0.08250000 5.29099989 -0.01825000 94 78 79 4325.000000
-0.08250000 5.29400015 -0.01725000 94 78 79 4135.000000
-0.08250000 5.29099989 -0.01625000 94 76 74 3132.000000
-0.08250000 5.29225016 -0.01525000 94 76 74 2121.000000
-0.08250000 5.29799986 -0.01425000 93 78 75 1603.000000
-0.08250000 5.29274988 -0.01325000 93 78 75 1235.000000
-0.08250000 5.29624987 -0.01225000 93 78 75 1103.000000
-0.08250000 5.29475021 -0.01125000 91 75 76 1157.000000
-0.08250000 5.29925013 -0.01025000 91 75 76 1564.000000
-0.08250000 5.29549980 -0.00925000 96 81 86 2089.000000
-0.08250000 5.29274988 -0.00825000 96 81 86 2721.000000
-0.08250000 5.29374981 -0.00725000 103 90 99 3300.000000
-0.08250000 5.29225016 -0.00625000 103 90 99 4100.000000
-0.08250000 5.29250002 -0.00525000 101 89 101 4457.000000
-0.08250000 5.29374981 -0.00425000 101 89 101 3985.000000
-0.08250000 5.29325008 -0.00325000 101 89 101 4189.000000
-0.08250000 5.29225016 -0.00225000 94 83 99 3960.000000
-0.08250000 5.29650021 -0.00125000 94 83 99 2535.000000
-0.08250000 5.30299997 0.00050000 93 84 103 3907.000000
-0.08250000 5.30499983 0.00150000 115 107 128 14746.000000
-0.08250000 5.30275011 0.00250000 115 107 128 27078.000000
-0.08250000 5.30299997 0.00350000 168 165 184 33753.000000
-0.08250000 5.30324984 0.00450000 168 165 184 34789.000000
-0.08250000 5.30249977 0.00550000 221 220 238 35617.000000
-0.08250000 5.30299997 0.00650000 221 220 238 37689.000000
-0.08250000 5.30249977 0.00750000 221 220 238 37696.000000
-0.08250000 5.30299997 0.00850000 234 236 251 35896.000000
-0.08250000 5.30324984 0.00950000 234 236 251 35335.000000
-0.08250000 5.30275011 0.01050000 230 234 246 33882.000000
-0.08250000 5.30399990 0.01150000 230 234 246 35467.000000
-0.08250000 5.30350018 0.01250000 236 240 251 36467.000000
-0.08250000 5.30324984 0.01350000 236 240 251 37842.000000
