//X Y Z R G B Intensity
-0.09650000 5.30975008 0.10675000 226 233 239 22628.000000
-0.09650000 5.30950022 0.10775000 226 233 239 12682.000000
-0.09650000 5.30950022 0.10875000 223 228 232 1432.000000
-0.09525000 5.29624987 -0.00050000 173 159 132 2485.000000
-0.09525000 5.29225016 0.00025000 134 123 105 4228.000000
-0.09525000 5.29374981 0.00125000 134 123 105 4260.000000
-0.09525000 5.29425001 0.00225000 107 98 89 3796.000000
-0.09525000 5.29675007 0.00625000 155 154 160 2628.000000
-0.09550000 5.30275011 0.00725000 155 154 160 28003.000000
-0.09550000 5.30375004 0.00825000 155 154 160 36614.000000
-0.09550000 5.30324984 0.00925000 203 206 215 39671.000000
-0.09550000 5.30324984 0.01025000 203 206 215 39500.000000
-0.09550000 5.30275011 0.01125000 222 229 235 38171.000000
-0.09550000 5.30424976 0.01225000 222 229 235 37835.000000
-0.09550000 5.30350018 0.01325000 221 232 236 37371.000000
-0.09550000 5.30424976 0.01425000 221 232 236 39489.000000
-0.09550000 5.30375004 0.01525000 219 233 234 42260.000000
-0.09550000 5.30324984 0.01625000 219 233 234 40928.000000
-0.09550000 5.30249977 0.01725000 221 235 236 36775.000000
-0.09550000 5.30324984 0.01825000 221 235 236 36617.000000
-0.09550000 5.30399990 0.01925000 221 235 236 38000.000000
-0.09550000 5.30399990 0.02025000 219 226 236 36914.000000
-0.09550000 5.30424976 0.02125000 219 226 236 37996.000000
-0.09550000 5.30275011 0.02225000 231 235 247 37221.000000
-0.09550000 5.30399990 0.02325000 231 235 247 37214.000000
-0.09550000 5.30399990 0.02425000 228 234 246 37525.000000
-0.09550000 5.30450010 0.02525000 228 234 246 36607.000000
-0.09550000 5.30450010 0.02625000 220 226 238 39489.000000
-0.09550000 5.30399990 0.02725000 220 226 238 38000.000000
-0.09550000 5.30550003 0.02825000 220 226 238 37050.000000
-0.09550000 5.30499983 0.02925000 225 231 243 34642.000000
-0.09550000 5.30399990 0.03025000 225 231 243 30142.000000
-0.09550000 5.30299997 0.03125000 230 236 250 22442.000000
-0.09550000 5.30399990 0.03225000 230 236 250 15671.000000
-0.09550000 5.30574989 0.03325000 208 214 228 10850.000000
-0.09550000 5.30574989 0.03425000 208 214 228 8078.000000
-0.09550000 5.30550003 0.03525000 176 182 198 8907.000000
-0.09550000 5.30525017 0.03625000 176 182 198 9403.000000
-0.09550000 5.30399990 0.03725000 116 122 138 9425.000000
-0.09550000 5.30625010 0.03825000 116 122 138 8585.000000
-0.09550000 5.30600023 0.03925000 116 122 138 7753.000000
-0.09550000 5.30299997 0.04025000 97 100 117 7525.000000
-0.09550000 5.30649996 0.04125000 97 100 117 7364.000000
-0.09550000 5.30450010 0.04225000 84 85 103 8167.000000
-0.09550000 5.30749989 0.04325000 84 85 103 7989.000000
-0.09550000 5.30625010 0.04425000 89 88 106 7771.000000
-0.09550000 5.30700016 0.04525000 89 88 106 7985.000000
-0.09550000 5.30525017 0.04625000 94 89 109 7789.000000
-0.09550000 5.30800009 0.04725000 94 89 109 8853.000000
-0.09550000 5.30674982 0.04825000 90 82 103 8178.000000
-0.09550000 5.30775023 0.04925000 90 82 103 7739.000000
-0.09550000 5.30499983 0.05025000 90 82 103 8289.000000
-0.09550000 5.30600023 0.05125000 89 80 101 8717.000000
-0.09550000 5.30550003 0.05225000 89 80 101 7728.000000
-0.09550000 5.30600023 0.05325000 93 84 103 8096.000000
-0.09550000 5.30674982 0.05425000 93 84 103 8496.000000
-0.09550000 5.30775023 0.05525000 94 83 100 7757.000000
-0.09550000 5.30649996 0.05625000 94 83 100 8164.000000
-0.09550000 5.30749989 0.05725000 93 82 98 7892.000000
-0.09550000 5.30900002 0.05825000 93 82 98 7196.000000
-0.09550000 5.30674982 0.05925000 93 82 98 7121.000000
-0.09550000 5.30900002 0.06025000 93 82 98 7417.000000
-0.09550000 5.30625010 0.06125000 93 82 98 7967.000000
-0.09550000 5.30775023 0.06225000 93 82 98 7450.000000
-0.09550000 5.30775023 0.06325000 93 82 98 7900.000000
-0.09550000 5.30775023 0.06425000 91 83 98 7971.000000
-0.09550000 5.30674982 0.06525000 91 83 98 8160.000000
-0.09550000 5.30775023 0.06625000 92 83 100 7925.000000
-0.09550000 5.30725002 0.06725000 92 83 100 7503.000000
-0.09550000 5.30749989 0.06825000 91 84 100 7500.000000
-0.09550000 5.30849981 0.06925000 91 84 100 7767.000000
-0.09550000 5.30875015 0.07025000 91 84 100 8121.000000
-0.09550000 5.30849981 0.07125000 92 85 101 8217.000000
-0.09550000 5.30849981 0.07225000 92 85 101 8510.000000
-0.09550000 5.30800009 0.07325000 90 86 103 7900.000000
-0.09550000 5.30824995 0.07450000 90 86 103 7753.000000
-0.09550000 5.31125021 0.07550000 91 88 105 7407.000000
-0.09550000 5.30900002 0.07650000 91 88 105 7000.000000
-0.09550000 5.30900002 0.07725000 86 83 102 7753.000000
-0.09550000 5.30950022 0.07825000 86 83 102 8010.000000
-0.09550000 5.30999994 0.07950000 91 90 108 7996.000000
-0.09550000 5.30924988 0.08050000 91 90 108 9035.000000
-0.09550000 5.30725002 0.08125000 91 90 108 12078.000000
-0.09550000 5.30800009 0.08250000 131 130 148 18589.000000
-0.09550000 5.30775023 0.08325000 131 130 148 27460.000000
-0.09550000 5.30950022 0.08450000 188 189 209 34607.000000
-0.09550000 5.31050014 0.08550000 188 189 209 37625.000000
-0.09550000 5.31050014 0.08650000 222 223 243 41421.000000
-0.09550000 5.31024981 0.08750000 222 223 243 40496.000000
-0.09550000 5.30875015 0.08825000 224 227 244 36721.000000
-0.09550000 5.30900002 0.08925000 224 227 244 35560.000000
-0.09550000 5.30924988 0.09050000 229 233 244 37017.000000
-0.09550000 5.30924988 0.09150000 229 233 244 38267.000000
-0.09550000 5.31024981 0.09250000 229 233 244 37942.000000
-0.09550000 5.30999994 0.09350000 228 235 243 36125.000000
-0.09550000 5.31050014 0.09450000 228 235 243 36857.000000
-0.09550000 5.31050014 0.09550000 225 232 240 35975.000000
-0.09550000 5.30950022 0.09650000 225 232 240 37014.000000
-0.09550000 5.30999994 0.09750000 221 228 236 39782.000000
-0.09550000 5.30950022 0.09850000 221 228 236 40503.000000
-0.09550000 5.30900002 0.09950000 222 229 237 36867.000000
-0.09550000 5.30999994 0.10050000 222 229 237 34335.000000
-0.09550000 5.31024981 0.10150000 222 229 237 36121.000000
-0.09550000 5.30999994 0.10250000 225 234 241 37782.000000
-0.09550000 5.31024981 0.10350000 225 234 241 35414.000000
-0.09550000 5.31050014 0.10450000 225 234 241 33942.000000
-0.09550000 5.30950022 0.10550000 225 234 241 31357.000000
-0.09550000 5.31099987 0.10650000 222 229 235 29700.000000
-0.09550000 5.31024981 0.10750000 222 229 235 22914.000000
-0.09550000 5.31075001 0.10850000 229 234 238 13496.000000
-0.09575000 5.31374979 0.10950000 229 234 238 4500.000000
-0.09425000 5.29349995 -0.00100000 173 159 132 2921.000000
-0.09425000 5.28999996 0.00000000 173 159 132 3957.000000
-0.09425000 5.29099989 0.00075000 134 123 105 4107.000000
-0.09450000 5.30649996 0.00175000 134 123 105 6067.000000
-0.09450000 5.30375004 0.00575000 116 110 110 17903.000000
-0.09450000 5.30399990 0.00675000 155 154 160 31182.000000
-0.09450000 5.30474997 0.00775000 155 154 160 36457.000000
-0.09450000 5.30399990 0.00875000 203 206 215 38982.000000
-0.09450000 5.30324984 0.00975000 203 206 215 40200.000000
-0.09450000 5.30324984 0.01075000 222 229 235 39500.000000
-0.09450000 5.30324984 0.01175000 222 229 235 37217.000000
-0.09450000 5.30324984 0.01275000 222 229 235 36617.000000
-0.09450000 5.30375004 0.01375000 221 232 236 36914.000000
-0.09450000 5.30399990 0.01475000 221 232 236 37064.000000
-0.09450000 5.30474997 0.01575000 219 233 234 38978.000000
-0.09450000 5.30275011 0.01675000 219 233 234 38657.000000
-0.09450000 5.30424976 0.01775000 221 235 236 36460.000000
-0.09450000 5.30324984 0.01875000 221 235 236 37067.000000
-0.09450000 5.30350018 0.01975000 219 226 236 39325.000000
-0.09450000 5.30324984 0.02075000 219 226 236 37842.000000
-0.09450000 5.30424976 0.02175000 231 235 247 37210.000000
-0.09450000 5.30399990 0.02275000 231 235 247 36317.000000
-0.09450000 5.30299997 0.02375000 231 235 247 35750.000000
-0.09450000 5.30424976 0.02475000 228 234 246 37210.000000
-0.09450000 5.30499983 0.02575000 228 234 246 37514.000000
-0.09450000 5.30474997 0.02675000 220 226 238 36607.000000
-0.09450000 5.30450010 0.02775000 220 226 238 36171.000000
-0.09450000 5.30574989 0.02875000 225 231 243 37985.000000
-0.09450000 5.30375004 0.02975000 225 231 243 39321.000000
-0.09450000 5.30324984 0.03075000 230 236 250 34392.000000
-0.09450000 5.30474997 0.03175000 230 236 250 27396.000000
-0.09450000 5.30499983 0.03275000 230 236 250 19867.000000
-0.09450000 5.30474997 0.03375000 208 214 228 13953.000000
-0.09450000 5.30574989 0.03475000 208 214 228 10128.000000
-0.09450000 5.30574989 0.03575000 176 182 198 9146.000000
-0.09450000 5.30700016 0.03675000 176 182 198 9021.000000
-0.09450000 5.30375004 0.03775000 116 122 138 8535.000000
-0.09450000 5.30424976 0.03875000 116 122 138 8975.000000
-0.09450000 5.30474997 0.03975000 97 100 117 8560.000000
-0.09450000 5.30649996 0.04075000 97 100 117 8575.000000
-0.09450000 5.30450010 0.04175000 84 85 103 8992.000000
-0.09450000 5.30649996 0.04275000 84 85 103 9007.000000
-0.09450000 5.30550003 0.04375000 84 85 103 7921.000000
-0.09450000 5.30700016 0.04475000 89 88 106 7825.000000
-0.09450000 5.30649996 0.04575000 89 88 106 7550.000000
-0.09450000 5.30649996 0.04675000 94 89 109 7950.000000
-0.09450000 5.30525017 0.04775000 94 89 109 8032.000000
-0.09450000 5.30600023 0.04875000 90 82 103 7328.000000
-0.09450000 5.30625010 0.04975000 90 82 103 7375.000000
-0.09450000 5.30775023 0.05075000 89 80 101 7835.000000
-0.09450000 5.30600023 0.05175000 89 80 101 8639.000000
-0.09450000 5.30749989 0.05275000 93 84 103 8571.000000
-0.09450000 5.30875015 0.05375000 93 84 103 8203.000000
-0.09450000 5.30649996 0.05475000 93 84 103 7157.000000
-0.09450000 5.30700016 0.05575000 94 83 100 7578.000000
-0.09450000 5.30550003 0.05675000 94 83 100 6817.000000
-0.09450000 5.30775023 0.05775000 93 82 98 6978.000000
-0.09450000 5.30775023 0.05875000 93 82 98 6821.000000
-0.09450000 5.30674982 0.05975000 93 82 98 7003.000000
-0.09450000 5.30975008 0.06075000 93 82 98 6914.000000
-0.09450000 5.30875015 0.06175000 93 82 98 7099.000000
-0.09450000 5.30824995 0.06275000 93 82 98 7628.000000
-0.09450000 5.30950022 0.06375000 93 82 98 7532.000000
-0.09450000 5.30824995 0.06475000 91 83 98 7982.000000
-0.09450000 5.30674982 0.06575000 91 83 98 7767.000000
-0.09450000 5.30625010 0.06675000 92 83 100 7217.000000
-0.09450000 5.30824995 0.06775000 92 83 100 6875.000000
-0.09450000 5.30800009 0.06875000 91 84 100 7071.000000
-0.09450000 5.30800009 0.06975000 91 84 100 8185.000000
-0.09450000 5.30824995 0.07075000 92 85 101 8096.000000
-0.09450000 5.30700016 0.07175000 92 85 101 7403.000000
-0.09450000 5.30875015 0.07275000 90 86 103 7521.000000
-0.09450000 5.30875015 0.07375000 90 86 103 7867.000000
-0.09450000 5.30950022 0.07475000 90 86 103 7825.000000
-0.09450000 5.30900002 0.07575000 91 88 105 7435.000000
-0.09450000 5.30849981 0.07675000 91 88 105 7603.000000
-0.09450000 5.30924988 0.07775000 86 83 102 7850.000000
-0.09450000 5.30950022 0.07875000 86 83 102 8232.000000
-0.09450000 5.31024981 0.07975000 91 90 108 10575.000000
-0.09450000 5.30924988 0.08075000 91 90 108 16071.000000
-0.09450000 5.30924988 0.08175000 131 130 148 20667.000000
-0.09450000 5.30849981 0.08275000 131 130 148 27792.000000
-0.09450000 5.30924988 0.08375000 188 189 209 34607.000000
-0.09450000 5.30950022 0.08475000 188 189 209 37164.000000
-0.09450000 5.30950022 0.08575000 188 189 209 37167.000000
-0.09450000 5.30849981 0.08675000 222 223 243 37796.000000
-0.09450000 5.30975008 0.08775000 222 223 243 36714.000000
-0.09450000 5.30950022 0.08875000 224 227 244 36271.000000
-0.09450000 5.30824995 0.08975000 224 227 244 37025.000000
-0.09450000 5.30824995 0.09075000 229 233 244 35707.000000
-0.09450000 5.30849981 0.09175000 229 233 244 37025.000000
-0.09450000 5.31075001 0.09275000 228 235 243 38103.000000
-0.09450000 5.30999994 0.09375000 228 235 243 40496.000000
-0.09450000 5.30975008 0.09475000 228 235 243 38592.000000
-0.09450000 5.30975008 0.09575000 225 232 240 35982.000000
-0.09450000 5.30950022 0.09675000 225 232 240 38432.000000
-0.09450000 5.31099987 0.09775000 221 228 236 40310.000000
-0.09450000 5.31024981 0.09875000 221 228 236 37007.000000
-0.09450000 5.31075001 0.09975000 222 229 237 35550.000000
-0.09450000 5.30950022 0.10075000 222 229 237 34082.000000
-0.09450000 5.30999994 0.10175000 225 234 241 34732.000000
-0.09450000 5.30999994 0.10275000 225 234 241 34864.000000
-0.09450000 5.30924988 0.10375000 225 234 241 32964.000000
-0.09450000 5.31125021 0.10475000 225 234 241 32710.000000
-0.09450000 5.30900002 0.10575000 225 234 241 35696.000000
-0.09450000 5.31075001 0.10675000 222 229 235 31460.000000
-0.09450000 5.30999994 0.10775000 222 229 235 22078.000000
-0.09450000 5.30875015 0.10875000 229 234 238 12457.000000
-0.09475000 5.31325006 0.11000000 229 234 238 1375.000000
-0.09350000 5.31099987 -0.00150000 168 153 132 614.000000
-0.09325000 5.29300022 -0.00050000 168 153 132 4882.000000
-0.09325000 5.29449987 0.00025000 123 111 99 5132.000000
-0.09325000 5.29624987 0.00125000 123 111 99 4428.000000
-0.09325000 5.29650021 0.00525000 129 120 125 2714.000000
-0.09350000 5.30249977 0.00625000 174 171 182 28532.000000
-0.09350000 5.30375004 0.00725000 174 171 182 35332.000000
-0.09350000 5.30350018 0.00825000 174 171 182 34785.000000
-0.09350000 5.30324984 0.00925000 216 216 228 33500.000000
-0.09350000 5.30299997 0.01025000 216 216 228 36325.000000
-0.09350000 5.30249977 0.01125000 226 230 239 37225.000000
-0.09350000 5.30249977 0.01225000 226 230 239 38496.000000
-0.09350000 5.30525017 0.01325000 220 229 234 40910.000000
-0.09350000 5.30424976 0.01425000 220 229 234 38982.000000
-0.09350000 5.30399990 0.01525000 218 232 233 37214.000000
-0.09350000 5.30525017 0.01625000 218 232 233 37360.000000
-0.09350000 5.30350018 0.01725000 223 234 236 38650.000000
-0.09350000 5.30350018 0.01825000 223 234 236 38003.000000
-0.09350000 5.30324984 0.01925000 223 234 236 40203.000000
-0.09350000 5.30474997 0.02025000 222 229 235 40371.000000
-0.09350000 5.30474997 0.02125000 222 229 235 44107.000000
-0.09350000 5.30424976 0.02225000 227 231 240 41482.000000
-0.09350000 5.30474997 0.02325000 227 231 240 38807.000000
-0.09350000 5.30525017 0.02425000 225 232 242 37989.000000
-0.09350000 5.30450010 0.02525000 225 232 242 37678.000000
-0.09350000 5.30450010 0.02625000 221 228 238 34514.000000
-0.09350000 5.30424976 0.02725000 221 228 238 35603.000000
-0.09350000 5.30474997 0.02825000 221 228 238 40189.000000
-0.09350000 5.30474997 0.02925000 219 228 237 39146.000000
-0.09350000 5.30450010 0.03025000 219 228 237 37057.000000
-0.09350000 5.30424976 0.03125000 221 230 239 34253.000000
-0.09350000 5.30450010 0.03225000 221 230 239 30860.000000
-0.09350000 5.30550003 0.03325000 221 229 240 22432.000000
-0.09350000 5.30499983 0.03425000 221 229 240 15528.000000
-0.09350000 5.30600023 0.03525000 218 226 239 12064.000000
-0.09350000 5.30625010 0.03625000 218 226 239 9953.000000
-0.09350000 5.30574989 0.03725000 164 172 185 8971.000000
-0.09350000 5.30324984 0.03825000 164 172 185 8803.000000
-0.09350000 5.30725002 0.03925000 164 172 185 8428.000000
-0.09350000 5.30674982 0.04025000 126 132 146 7992.000000
-0.09350000 5.30424976 0.04125000 126 132 146 8457.000000
-0.09350000 5.30450010 0.04225000 93 94 112 7864.000000
-0.09350000 5.30725002 0.04325000 93 94 112 7642.000000
-0.09350000 5.30550003 0.04425000 86 85 103 7575.000000
-0.09350000 5.30499983 0.04525000 86 85 103 7185.000000
-0.09350000 5.30649996 0.04625000 91 86 106 7814.000000
-0.09350000 5.30700016 0.04725000 91 86 106 8089.000000
-0.09350000 5.30474997 0.04825000 90 82 103 7564.000000
-0.09350000 5.30725002 0.04925000 90 82 103 8417.000000
-0.09350000 5.30700016 0.05025000 90 82 103 8571.000000
-0.09350000 5.30525017 0.05125000 88 78 102 8360.000000
-0.09350000 5.30625010 0.05225000 88 78 102 8150.000000
-0.09350000 5.30849981 0.05325000 89 80 101 8078.000000
-0.09350000 5.30600023 0.05425000 89 80 101 7124.000000
-0.09350000 5.30824995 0.05525000 95 83 103 6714.000000
-0.09350000 5.30574989 0.05625000 95 83 103 6475.000000
-0.09350000 5.30674982 0.05725000 95 82 100 6535.000000
-0.09350000 5.30824995 0.05825000 95 82 100 7389.000000
-0.09350000 5.30700016 0.05925000 93 82 99 7607.000000
-0.09350000 5.30674982 0.06025000 93 82 99 7732.000000
-0.09350000 5.30700016 0.06125000 93 82 99 7785.000000
-0.09350000 5.30824995 0.06225000 91 79 99 7289.000000
-0.09350000 5.30824995 0.06325000 91 79 99 6860.000000
-0.09350000 5.30900002 0.06425000 89 80 99 6892.000000
-0.09350000 5.30875015 0.06525000 89 80 99 6921.000000
-0.09350000 5.30674982 0.06625000 89 80 99 7110.000000
-0.09350000 5.30975008 0.06750000 89 80 99 6967.000000
-0.09350000 5.31024981 0.06850000 89 82 100 7153.000000
-0.09350000 5.30824995 0.06925000 89 82 100 7389.000000
-0.09350000 5.30674982 0.07025000 89 82 100 7889.000000
-0.09350000 5.30700016 0.07125000 89 82 100 7332.000000
-0.09350000 5.30900002 0.07250000 89 82 100 6853.000000
-0.09350000 5.30775023 0.07325000 91 87 104 6928.000000
-0.09350000 5.30875015 0.07425000 91 87 104 7328.000000
-0.09350000 5.30875015 0.07525000 88 85 102 7167.000000
-0.09350000 5.30875015 0.07625000 88 85 102 8132.000000
-0.09350000 5.30849981 0.07725000 97 94 111 9385.000000
-0.09350000 5.30775023 0.07825000 97 94 111 10535.000000
-0.09350000 5.30900002 0.07950000 130 129 145 15492.000000
-0.09350000 5.30775023 0.08025000 130 129 145 22989.000000
-0.09350000 5.30849981 0.08125000 130 129 145 26964.000000
-0.09350000 5.30849981 0.08225000 182 181 197 32732.000000
-0.09350000 5.30950022 0.08350000 182 181 197 35842.000000
-0.09350000 5.30975008 0.08450000 222 223 241 37321.000000
-0.09350000 5.30824995 0.08550000 222 223 241 38446.000000
-0.09350000 5.30900002 0.08650000 230 231 249 37482.000000
-0.09350000 5.30999994 0.08750000 230 231 249 38107.000000
-0.09350000 5.31024981 0.08850000 220 222 235 37314.000000
-0.09350000 5.30924988 0.08950000 220 222 235 38439.000000
-0.09350000 5.30950022 0.09050000 227 230 237 38110.000000
-0.09350000 5.30999994 0.09150000 227 230 237 37317.000000
-0.09350000 5.30999994 0.09250000 227 230 237 35978.000000
-0.09350000 5.30924988 0.09350000 227 231 234 37017.000000
-0.09350000 5.31075001 0.09450000 227 231 234 38921.000000
-0.09350000 5.31024981 0.09550000 226 229 234 36857.000000
-0.09350000 5.31024981 0.09650000 226 229 234 36121.000000
-0.09350000 5.30950022 0.09750000 224 229 233 37164.000000
-0.09350000 5.31024981 0.09850000 224 229 233 36410.000000
-0.09350000 5.31050014 0.09950000 226 231 237 36121.000000
-0.09350000 5.30924988 0.10050000 226 231 237 34342.000000
-0.09350000 5.30924988 0.10150000 226 231 237 35839.000000
-0.09350000 5.30950022 0.10250000 228 233 239 35003.000000
-0.09350000 5.31099987 0.10350000 228 233 239 33689.000000
-0.09350000 5.30975008 0.10450000 227 232 238 33200.000000
-0.09350000 5.31099987 0.10550000 227 232 238 32953.000000
-0.09350000 5.31099987 0.10650000 223 228 234 33814.000000
-0.09350000 5.31050014 0.10750000 223 228 234 29996.000000
-0.09350000 5.30950022 0.10850000 229 234 238 21553.000000
-0.09350000 5.30975008 0.10950000 229 234 238 10825.000000
-0.09225000 5.29400015 -0.00100000 168 153 132 4285.000000
-0.09225000 5.29125023 0.00000000 123 111 99 4882.000000
-0.09225000 5.29374981 0.00075000 123 111 99 4160.000000
-0.09250000 5.30299997 0.00175000 123 111 99 4378.000000
-0.09250000 5.30299997 0.00475000 129 120 125 13582.000000
-0.09250000 5.30350018 0.00575000 129 120 125 25989.000000
-0.09250000 5.30424976 0.00675000 174 171 182 33617.000000
-0.09250000 5.30124998 0.00775000 174 171 182 35075.000000
-0.09250000 5.30175018 0.00875000 216 216 228 34014.000000
-0.09250000 5.30175018 0.00975000 216 216 228 33507.000000
-0.09250000 5.30275011 0.01075000 226 230 239 34925.000000
-0.09250000 5.30299997 0.01175000 226 230 239 37071.000000
-0.09250000 5.30299997 0.01275000 226 230 239 38167.000000
-0.09250000 5.30399990 0.01375000 220 229 234 38650.000000
-0.09250000 5.30375004 0.01475000 220 229 234 38650.000000
-0.09250000 5.30324984 0.01575000 218 232 233 37375.000000
-0.09250000 5.30375004 0.01675000 218 232 233 35192.000000
-0.09250000 5.30350018 0.01775000 223 234 236 36321.000000
-0.09250000 5.30350018 0.01875000 223 234 236 36917.000000
-0.09250000 5.30399990 0.01975000 222 229 235 39150.000000
-0.09250000 5.30424976 0.02075000 222 229 235 38160.000000
-0.09250000 5.30474997 0.02175000 227 231 240 37517.000000
-0.09250000 5.30525017 0.02275000 227 231 240 37989.000000
-0.09250000 5.30399990 0.02375000 227 231 240 38317.000000
-0.09250000 5.30424976 0.02475000 225 232 242 35739.000000
-0.09250000 5.30350018 0.02575000 225 232 242 36178.000000
-0.09250000 5.30375004 0.02675000 221 228 238 35467.000000
-0.09250000 5.30499983 0.02775000 221 228 238 38475.000000
-0.09250000 5.30525017 0.02875000 219 228 237 39482.000000
-0.09250000 5.30649996 0.02975000 219 228 237 41085.000000
-0.09250000 5.30550003 0.03075000 221 230 239 41664.000000
-0.09250000 5.30499983 0.03175000 221 230 239 37360.000000
-0.09250000 5.30450010 0.03275000 221 230 239 32067.000000
-0.09250000 5.30424976 0.03375000 221 229 240 23796.000000
-0.09250000 5.30299997 0.03475000 221 229 240 18160.000000
-0.09250000 5.30450010 0.03575000 218 226 239 13432.000000
-0.09250000 5.30474997 0.03675000 218 226 239 10353.000000
-0.09250000 5.30550003 0.03775000 164 172 185 8607.000000
-0.09250000 5.30649996 0.03875000 164 172 185 7835.000000
-0.09250000 5.30625010 0.03975000 126 132 146 7532.000000
-0.09250000 5.30674982 0.04075000 126 132 146 7567.000000
-0.09250000 5.30499983 0.04175000 93 94 112 7046.000000
-0.09250000 5.30550003 0.04275000 93 94 112 6903.000000
-0.09250000 5.30649996 0.04375000 93 94 112 7507.000000
-0.09250000 5.30674982 0.04475000 86 85 103 8328.000000
-0.09250000 5.30499983 0.04575000 86 85 103 7857.000000
-0.09250000 5.30674982 0.04675000 91 86 106 7639.000000
-0.09250000 5.30600023 0.04775000 91 86 106 7257.000000
-0.09250000 5.30299997 0.04875000 90 82 103 7264.000000
-0.09250000 5.30700016 0.04975000 90 82 103 7475.000000
-0.09250000 5.30749989 0.05075000 88 78 102 7110.000000
-0.09250000 5.30649996 0.05175000 88 78 102 7217.000000
-0.09250000 5.30924988 0.05275000 89 80 101 7249.000000
-0.09250000 5.30725002 0.05375000 89 80 101 7439.000000
-0.09250000 5.30975008 0.05475000 89 80 101 7364.000000
-0.09250000 5.30674982 0.05575000 95 83 103 6935.000000
-0.09250000 5.30700016 0.05675000 95 83 103 6371.000000
-0.09250000 5.30749989 0.05775000 95 82 100 6742.000000
-0.09250000 5.30700016 0.05875000 95 82 100 7367.000000
-0.09250000 5.30600023 0.05975000 93 82 99 7735.000000
-0.09250000 5.30625010 0.06075000 93 82 99 7907.000000
-0.09250000 5.30875015 0.06175000 91 79 99 7778.000000
-0.09250000 5.30749989 0.06275000 91 79 99 7210.000000
-0.09250000 5.30725002 0.06375000 91 79 99 7032.000000
-0.09250000 5.30775023 0.06475000 89 80 99 7271.000000
-0.09250000 5.30749989 0.06575000 89 80 99 7457.000000
-0.09250000 5.30775023 0.06675000 89 80 99 7450.000000
-0.09250000 5.30700016 0.06775000 89 80 99 7228.000000
-0.09250000 5.30525017 0.06875000 89 82 100 7814.000000
-0.09250000 5.30775023 0.06975000 89 82 100 7564.000000
-0.09250000 5.30800009 0.07075000 89 82 100 7346.000000
-0.09250000 5.30900002 0.07175000 89 82 100 8035.000000
-0.09250000 5.30999994 0.07275000 91 87 104 8332.000000
-0.09250000 5.30800009 0.07375000 91 87 104 7625.000000
-0.09250000 5.30749989 0.07475000 91 87 104 7353.000000
-0.09250000 5.31075001 0.07575000 88 85 102 8032.000000
-0.09250000 5.30975008 0.07675000 88 85 102 8542.000000
-0.09250000 5.30849981 0.07775000 97 94 111 10775.000000
-0.09250000 5.30875015 0.07875000 97 94 111 16421.000000
-0.09250000 5.30900002 0.07975000 130 129 145 23896.000000
-0.09250000 5.30800009 0.08075000 130 129 145 30217.000000
-0.09250000 5.30800009 0.08175000 182 181 197 32617.000000
-0.09250000 5.30924988 0.08275000 182 181 197 35989.000000
-0.09250000 5.31050014 0.08375000 222 223 241 39957.000000
-0.09250000 5.30824995 0.08475000 222 223 241 38607.000000
-0.09250000 5.30900002 0.08575000 222 223 241 38600.000000
-0.09250000 5.31024981 0.08675000 230 231 249 38760.000000
-0.09250000 5.30999994 0.08775000 230 231 249 39264.000000
-0.09250000 5.31125021 0.08875000 220 222 235 39253.000000
-0.09250000 5.31024981 0.08975000 220 222 235 39435.000000
-0.09250000 5.31050014 0.09075000 227 230 237 39092.000000
-0.09250000 5.30975008 0.09175000 227 230 237 37628.000000
-0.09250000 5.30900002 0.09275000 227 231 234 36132.000000
-0.09250000 5.31024981 0.09375000 227 231 234 36560.000000
-0.09275000 5.31174994 0.09475000 226 229 234 36700.000000
-0.09250000 5.31125021 0.09575000 226 229 234 37000.000000
-0.09250000 5.31075001 0.09675000 226 229 234 37464.000000
-0.09250000 5.31024981 0.09775000 224 229 233 34864.000000
-0.09250000 5.30924988 0.09875000 224 229 233 35146.000000
-0.09250000 5.30924988 0.09975000 226 231 237 35146.000000
-0.09250000 5.31050014 0.10075000 226 231 237 35975.000000
-0.09250000 5.30999994 0.10175000 228 233 239 38107.000000
-0.09250000 5.30975008 0.10275000 228 233 239 37010.000000
-0.09250000 5.31024981 0.10375000 227 232 238 34732.000000
-0.09250000 5.31024981 0.10475000 227 232 238 32596.000000
-0.09250000 5.31075001 0.10575000 227 232 238 32592.000000
-0.09250000 5.31075001 0.10675000 223 228 234 32592.000000
-0.09250000 5.30950022 0.10775000 223 228 234 28403.000000
-0.09250000 5.31024981 0.10875000 229 234 238 20382.000000
-0.09275000 5.31225014 0.10975000 229 234 238 3621.000000
-0.09125000 5.29524994 -0.00150000 168 153 132 2589.000000
-0.09125000 5.29150009 -0.00050000 168 153 132 4617.000000
-0.09125000 5.29400015 0.00025000 123 111 99 4032.000000
-0.09150000 5.29624987 0.00125000 123 111 99 2853.000000
-0.09150000 5.30299997 0.00425000 129 120 125 1835.000000
-0.09150000 5.30275011 0.00525000 129 120 125 25192.000000
-0.09150000 5.30224991 0.00625000 174 171 182 34664.000000
-0.09150000 5.30175018 0.00725000 174 171 182 35485.000000
-0.09150000 5.30249977 0.00825000 174 171 182 33503.000000
-0.09150000 5.30324984 0.00925000 216 216 228 33750.000000
-0.09150000 5.30299997 0.01025000 216 216 228 35896.000000
-0.09150000 5.30249977 0.01125000 226 230 239 37850.000000
-0.09150000 5.30375004 0.01225000 226 230 239 40017.000000
-0.09150000 5.30350018 0.01325000 220 229 234 39325.000000
-0.09150000 5.30324984 0.01425000 220 229 234 36917.000000
-0.09150000 5.30249977 0.01525000 218 232 233 37535.000000
-0.09150000 5.30474997 0.01625000 218 232 233 37521.000000
-0.09150000 5.30450010 0.01750000 223 234 236 38642.000000
-0.09150000 5.30375004 0.01825000 223 234 236 40557.000000
-0.09150000 5.30350018 0.01925000 223 234 236 39846.000000
-0.09150000 5.30350018 0.02025000 222 229 235 38650.000000
-0.09150000 5.30399990 0.02125000 222 229 235 37064.000000
-0.09150000 5.30474997 0.02225000 227 231 240 37521.000000
-0.09150000 5.30474997 0.02325000 227 231 240 36907.000000
-0.09150000 5.30600023 0.02425000 225 232 242 36596.000000
-0.09150000 5.30474997 0.02525000 225 232 242 36757.000000
-0.09150000 5.30350018 0.02625000 221 228 238 38321.000000
-0.09150000 5.30474997 0.02725000 221 228 238 38478.000000
-0.09150000 5.30424976 0.02825000 221 228 238 40371.000000
-0.09150000 5.30600023 0.02925000 219 228 237 39825.000000
-0.09150000 5.30525017 0.03025000 219 228 237 40003.000000
-0.09150000 5.30525017 0.03125000 221 230 239 38635.000000
-0.09150000 5.30474997 0.03225000 221 230 239 34646.000000
-0.09150000 5.30550003 0.03325000 221 229 240 33607.000000
-0.09150000 5.30550003 0.03425000 221 229 240 30135.000000
-0.09150000 5.30700016 0.03525000 218 226 239 24032.000000
-0.09150000 5.30450010 0.03625000 218 226 239 16346.000000
-0.09150000 5.30649996 0.03725000 164 172 185 10871.000000
-0.09150000 5.30499983 0.03825000 164 172 185 8432.000000
-0.09150000 5.30775023 0.03925000 164 172 185 8553.000000
-0.09150000 5.30775023 0.04025000 126 132 146 8207.000000
-0.09150000 5.30725002 0.04125000 126 132 146 7767.000000
-0.09150000 5.30625010 0.04225000 93 94 112 7321.000000
-0.09150000 5.30625010 0.04325000 93 94 112 7296.000000
-0.09150000 5.30574989 0.04425000 86 85 103 7778.000000
-0.09150000 5.30525017 0.04525000 86 85 103 7982.000000
-0.09150000 5.30600023 0.04625000 91 86 106 7464.000000
-0.09150000 5.30674982 0.04725000 91 86 106 7400.000000
-0.09150000 5.30525017 0.04825000 90 82 103 6885.000000
-0.09150000 5.30725002 0.04925000 90 82 103 7482.000000
-0.09150000 5.30824995 0.05050000 90 82 103 7378.000000
-0.09150000 5.30900002 0.05150000 88 78 102 6800.000000
-0.09150000 5.30824995 0.05225000 88 78 102 7550.000000
-0.09150000 5.30950022 0.05350000 89 80 101 9214.000000
-0.09150000 5.30775023 0.05425000 89 80 101 9067.000000
-0.09150000 5.30674982 0.05525000 95 83 103 8371.000000
-0.09150000 5.30649996 0.05625000 95 83 103 7025.000000
-0.09150000 5.30749989 0.05725000 95 82 100 6714.000000
-0.09150000 5.30875015 0.05825000 95 82 100 7203.000000
-0.09150000 5.30700016 0.05925000 93 82 99 7507.000000
-0.09150000 5.30700016 0.06025000 93 82 99 7828.000000
-0.09150000 5.30749989 0.06125000 93 82 99 8192.000000
-0.09150000 5.30924988 0.06225000 91 79 99 8600.000000
-0.09150000 5.30824995 0.06325000 91 79 99 7167.000000
-0.09150000 5.30924988 0.06425000 89 80 99 6939.000000
-0.09150000 5.30824995 0.06525000 89 80 99 8835.000000
-0.09150000 5.30725002 0.06625000 89 80 99 8382.000000
-0.09150000 5.30849981 0.06725000 89 80 99 7214.000000
-0.09150000 5.30700016 0.06825000 89 82 100 6703.000000
-0.09150000 5.30700016 0.06925000 89 82 100 7103.000000
-0.09150000 5.30749989 0.07025000 89 82 100 7239.000000
-0.09150000 5.30924988 0.07150000 89 82 100 7735.000000
-0.09150000 5.30725002 0.07225000 89 82 100 8278.000000
-0.09150000 5.30900002 0.07350000 91 87 104 8328.000000
-0.09150000 5.30900002 0.07450000 91 87 104 7742.000000
-0.09150000 5.30875015 0.07550000 88 85 102 7778.000000
-0.09150000 5.30800009 0.07625000 88 85 102 9242.000000
-0.09150000 5.30775023 0.07725000 97 94 111 12014.000000
-0.09150000 5.30900002 0.07825000 97 94 111 19257.000000
-0.09150000 5.30849981 0.07925000 130 129 145 28589.000000
-0.09150000 5.30800009 0.08025000 130 129 145 35157.000000
-0.09150000 5.30800009 0.08125000 130 129 145 35853.000000
-0.09150000 5.30775023 0.08225000 182 181 197 36285.000000
-0.09150000 5.30800009 0.08350000 182 181 197 36282.000000
-0.09150000 5.30924988 0.08450000 222 223 241 37017.000000
-0.09150000 5.30950022 0.08550000 222 223 241 37950.000000
-0.09150000 5.30999994 0.08650000 230 231 249 38928.000000
-0.09150000 5.30924988 0.08750000 230 231 249 38271.000000
-0.09150000 5.31024981 0.08850000 220 222 235 37314.000000
-0.09150000 5.30975008 0.08950000 220 222 235 38110.000000
-0.09150000 5.31050014 0.09050000 227 230 237 39260.000000
-0.09150000 5.31075001 0.09150000 227 230 237 40492.000000
-0.09150000 5.30950022 0.09250000 227 230 237 38110.000000
-0.09150000 5.30950022 0.09350000 227 231 234 36864.000000
-0.09150000 5.30924988 0.09450000 227 231 234 37017.000000
-0.09150000 5.31050014 0.09550000 226 229 234 37778.000000
-0.09150000 5.31050014 0.09650000 226 229 234 37942.000000
-0.09150000 5.31024981 0.09750000 224 229 233 36410.000000
-0.09150000 5.30900002 0.09825000 224 229 233 35842.000000
-0.09150000 5.30849981 0.09925000 226 231 237 36571.000000
-0.09150000 5.30900002 0.10025000 226 231 237 38600.000000
-0.09150000 5.31075001 0.10150000 226 231 237 37003.000000
-0.09150000 5.31050014 0.10250000 228 233 239 39778.000000
-0.09150000 5.30975008 0.10350000 228 233 239 37317.000000
-0.09150000 5.30975008 0.10450000 227 232 238 35003.000000
-0.09175000 5.31174994 0.10550000 227 232 238 32946.000000
-0.09150000 5.31024981 0.10650000 223 228 234 32839.000000
-0.09175000 5.31150007 0.10750000 223 228 234 31564.000000
-0.09175000 5.31099987 0.10850000 229 234 238 26632.000000
-0.09175000 5.31150007 0.10950000 229 234 238 18807.000000
-0.09175000 5.31150007 0.11050000 217 221 222 10396.000000
-0.09025000 5.29274988 -0.00200000 153 137 121 3035.000000
-0.09025000 5.29300022 -0.00100000 153 137 121 4057.000000
-0.09025000 5.29475021 0.00000000 113 98 91 4550.000000
-0.09050000 5.30525017 0.00075000 113 98 91 3292.000000
-0.09050000 5.30324984 0.00375000 115 103 105 11653.000000
-0.09050000 5.30224991 0.00475000 146 136 145 21489.000000
-0.09050000 5.30175018 0.00575000 146 136 145 31200.000000
-0.09050000 5.30200005 0.00675000 193 187 201 35757.000000
-0.09050000 5.30275011 0.00775000 193 187 201 36925.000000
-0.09050000 5.30249977 0.00875000 222 220 234 35617.000000
-0.09050000 5.30350018 0.00975000 222 220 234 36178.000000
-0.09050000 5.30375004 0.01075000 223 225 237 38817.000000
-0.09050000 5.30299997 0.01175000 223 225 237 37221.000000
-0.09050000 5.30299997 0.01275000 223 225 237 36182.000000
-0.09050000 5.30299997 0.01375000 219 226 232 37221.000000
-0.09050000 5.30474997 0.01475000 219 226 232 34910.000000
-0.09050000 5.30424976 0.01575000 221 232 234 36910.000000
-0.09050000 5.30450010 0.01675000 221 232 234 39150.000000
-0.09050000 5.30350018 0.01775000 223 233 234 41489.000000
-0.09050000 5.30399990 0.01875000 223 233 234 39839.000000
-0.09050000 5.30399990 0.01975000 226 234 237 38317.000000
-0.09050000 5.30550003 0.02075000 226 234 237 38303.000000
-0.09050000 5.30399990 0.02175000 221 226 230 36764.000000
-0.09050000 5.30375004 0.02275000 221 226 230 35889.000000
-0.09050000 5.30375004 0.02375000 221 226 230 34521.000000
-0.09050000 5.30474997 0.02475000 217 224 230 36314.000000
-0.09050000 5.30399990 0.02575000 217 224 230 35607.000000
-0.09050000 5.30499983 0.02675000 222 231 236 36903.000000
-0.09050000 5.30375004 0.02775000 222 231 236 37064.000000
-0.09050000 5.30474997 0.02875000 225 234 239 36907.000000
-0.09050000 5.30474997 0.02975000 225 234 239 38978.000000
-0.09050000 5.30550003 0.03075000 221 232 238 39482.000000
-0.09050000 5.30550003 0.03175000 221 232 238 37985.000000
-0.09050000 5.30674982 0.03275000 221 232 238 36296.000000
-0.09050000 5.30550003 0.03375000 220 230 239 35875.000000
-0.09050000 5.30574989 0.03475000 220 230 239 33360.000000
-0.09050000 5.30574989 0.03575000 224 234 244 26510.000000
-0.09050000 5.30499983 0.03675000 224 234 244 18564.000000
-0.09050000 5.30399990 0.03775000 208 216 227 12485.000000
-0.09050000 5.30600023 0.03875000 208 216 227 10214.000000
-0.09050000 5.30525017 0.03975000 166 172 186 9289.000000
-0.09050000 5.30499983 0.04075000 166 172 186 8421.000000
-0.09050000 5.30550003 0.04175000 119 122 137 8707.000000
-0.09050000 5.30749989 0.04275000 119 122 137 8146.000000
-0.09050000 5.30649996 0.04375000 119 122 137 8317.000000
-0.09050000 5.30674982 0.04475000 94 93 111 8221.000000
-0.09050000 5.30725002 0.04575000 94 93 111 8085.000000
-0.09050000 5.30824995 0.04675000 86 83 102 7010.000000
-0.09050000 5.30625010 0.04775000 86 83 102 6803.000000
-0.09050000 5.30775023 0.04875000 85 80 100 7703.000000
-0.09050000 5.30875015 0.04975000 85 80 100 8646.000000
-0.09050000 5.30999994 0.05075000 87 79 102 8764.000000
-0.09050000 5.30525017 0.05175000 87 79 102 7564.000000
-0.09050000 5.30674982 0.05275000 91 81 105 7307.000000
-0.09050000 5.30725002 0.05375000 91 81 105 8789.000000
-0.09050000 5.30674982 0.05475000 91 81 105 8550.000000
-0.09050000 5.30725002 0.05575000 95 83 105 7049.000000
-0.09050000 5.30674982 0.05675000 95 83 105 6685.000000
-0.09050000 5.30725002 0.05775000 95 82 102 7378.000000
-0.09050000 5.30775023 0.05875000 95 82 102 7907.000000
-0.09050000 5.30824995 0.05975000 92 80 100 6789.000000
-0.09050000 5.30775023 0.06075000 92 80 100 6867.000000
-0.09050000 5.30875015 0.06175000 90 78 98 8007.000000
-0.09050000 5.30625010 0.06275000 90 78 98 8532.000000
-0.09050000 5.30700016 0.06375000 90 78 98 8339.000000
-0.09050000 5.30775023 0.06475000 88 79 98 8189.000000
-0.09050000 5.30800009 0.06575000 88 79 98 8000.000000
-0.09050000 5.30900002 0.06675000 89 80 99 8017.000000
-0.09050000 5.30900002 0.06775000 89 80 99 7575.000000
-0.09050000 5.30800009 0.06875000 89 82 100 7810.000000
-0.09050000 5.30875015 0.06975000 89 82 100 8682.000000
-0.09050000 5.30800009 0.07075000 88 84 101 8050.000000
-0.09050000 5.30875015 0.07175000 88 84 101 8271.000000
-0.09050000 5.30849981 0.07275000 93 90 107 8785.000000
-0.09050000 5.30924988 0.07375000 93 90 107 8214.000000
-0.09050000 5.31024981 0.07475000 93 90 107 7621.000000
-0.09050000 5.30849981 0.07575000 95 92 109 9578.000000
-0.09050000 5.30999994 0.07675000 95 92 109 15332.000000
-0.09050000 5.30824995 0.07775000 129 128 144 21057.000000
-0.09050000 5.30975008 0.07875000 129 128 144 28853.000000
-0.09050000 5.30849981 0.07975000 186 188 203 36875.000000
-0.09050000 5.30924988 0.08075000 186 188 203 39446.000000
-0.09050000 5.30824995 0.08175000 222 224 239 39114.000000
-0.09050000 5.30900002 0.08275000 222 224 239 38275.000000
-0.09050000 5.30849981 0.08375000 223 225 240 36575.000000
-0.09050000 5.30875015 0.08475000 223 225 240 38939.000000
-0.09050000 5.30950022 0.08575000 223 225 240 38435.000000
-0.09050000 5.31125021 0.08675000 221 224 239 38100.000000
-0.09050000 5.31050014 0.08775000 221 224 239 37157.000000
-0.09050000 5.31050014 0.08875000 231 233 245 35978.000000
-0.09050000 5.30999994 0.08975000 231 233 245 36414.000000
-0.09050000 5.30924988 0.09075000 229 230 234 38439.000000
-0.09050000 5.30924988 0.09175000 229 230 234 38600.000000
-0.09050000 5.31150007 0.09275000 229 230 232 37150.000000
-0.09050000 5.31024981 0.09375000 229 230 232 37471.000000
-0.09050000 5.31050014 0.09475000 229 230 232 38260.000000
-0.09050000 5.30900002 0.09575000 230 231 233 38117.000000
-0.09050000 5.31024981 0.09675000 230 231 233 38925.000000
-0.09050000 5.30950022 0.09775000 229 233 236 38110.000000
-0.09050000 5.30950022 0.09875000 229 233 236 36271.000000
-0.09050000 5.30950022 0.09975000 231 234 239 34867.000000
-0.09050000 5.30875015 0.10075000 231 234 239 35150.000000
-0.09050000 5.30875015 0.10175000 230 235 241 36132.000000
-0.09050000 5.31050014 0.10275000 230 235 241 38103.000000
-0.09050000 5.31050014 0.10375000 229 234 240 38425.000000
-0.09050000 5.31075001 0.10475000 229 234 240 37464.000000
-0.09050000 5.31150007 0.10575000 229 234 240 34992.000000
-0.09050000 5.31125021 0.10675000 227 232 236 35267.000000
-0.09050000 5.31174994 0.10775000 227 232 236 35403.000000
-0.09050000 5.31125021 0.10875000 228 232 235 29696.000000
-0.09050000 5.31075001 0.10975000 228 232 235 20428.000000
-0.09075000 5.31300020 0.11075000 224 225 227 2814.000000
-0.08925000 5.29099989 -0.00325000 188 170 146 2664.000000
-0.08925000 5.29174995 -0.00250000 188 170 146 3342.000000
-0.08925000 5.29300022 -0.00150000 153 137 121 4071.000000
-0.08925000 5.29425001 -0.00050000 153 137 121 4496.000000
-0.08950000 5.29699993 0.00025000 113 98 91 4060.000000
-0.08950000 5.30299997 0.00325000 115 103 105 2567.000000
-0.08950000 5.30350018 0.00425000 146 136 145 24375.000000
-0.08950000 5.30249977 0.00525000 146 136 145 33628.000000
-0.08950000 5.30224991 0.00625000 193 187 201 35757.000000
-0.08950000 5.30249977 0.00725000 193 187 201 37075.000000
-0.08950000 5.30175018 0.00825000 193 187 201 38503.000000
-0.08950000 5.30224991 0.00925000 222 220 234 36046.000000
-0.08950000 5.30249977 0.01025000 222 220 234 35753.000000
-0.08950000 5.30350018 0.01125000 223 225 237 35471.000000
-0.08950000 5.30375004 0.01225000 223 225 237 36321.000000
-0.08950000 5.30350018 0.01325000 219 226 232 36178.000000
-0.08950000 5.30424976 0.01425000 219 226 232 38160.000000
-0.08950000 5.30350018 0.01525000 221 232 234 38821.000000
-0.08950000 5.30474997 0.01625000 221 232 234 40728.000000
-0.08950000 5.30600023 0.01725000 223 233 234 40717.000000
-0.08950000 5.30474997 0.01825000 223 233 234 39314.000000
-0.08950000 5.30499983 0.01925000 223 233 234 38153.000000
-0.08950000 5.30550003 0.02025000 226 234 237 40003.000000
-0.08950000 5.30375004 0.02125000 226 234 237 37839.000000
-0.08950000 5.30350018 0.02225000 221 226 230 36178.000000
-0.08950000 5.30399990 0.02325000 221 226 230 35467.000000
-0.08950000 5.30474997 0.02425000 217 224 230 36314.000000
-0.08950000 5.30450010 0.02525000 217 224 230 37521.000000
-0.08950000 5.30450010 0.02625000 222 231 236 37678.000000
-0.08950000 5.30625010 0.02725000 222 231 236 36303.000000
-0.08950000 5.30450010 0.02825000 222 231 236 36610.000000
-0.08950000 5.30450010 0.02925000 225 234 239 36610.000000
-0.08950000 5.30450010 0.03025000 225 234 239 37678.000000
-0.08950000 5.30725002 0.03125000 221 232 238 39292.000000
-0.08950000 5.30574989 0.03225000 221 232 238 38146.000000
-0.08950000 5.30625010 0.03325000 220 230 239 39300.000000
-0.08950000 5.30499983 0.03425000 220 230 239 37675.000000
-0.08950000 5.30474997 0.03525000 224 234 244 33003.000000
-0.08950000 5.30474997 0.03625000 224 234 244 27992.000000
-0.08950000 5.30324984 0.03725000 208 216 227 20146.000000
-0.08950000 5.30399990 0.03825000 208 216 227 15432.000000
-0.08950000 5.30649996 0.03925000 208 216 227 11685.000000
-0.08950000 5.30550003 0.04025000 166 172 186 8478.000000
-0.08950000 5.30525017 0.04125000 166 172 186 7603.000000
-0.08950000 5.30700016 0.04225000 119 122 137 8039.000000
-0.08950000 5.30625010 0.04325000 119 122 137 8707.000000
-0.08950000 5.30574989 0.04425000 94 93 111 7928.000000
-0.08950000 5.30600023 0.04525000 94 93 111 8042.000000
-0.08950000 5.30625010 0.04625000 86 83 102 7825.000000
-0.08950000 5.30550003 0.04725000 86 83 102 7539.000000
-0.08950000 5.30700016 0.04825000 85 80 100 7960.000000
-0.08950000 5.30525017 0.04925000 85 80 100 8485.000000
-0.08950000 5.30674982 0.05025000 85 80 100 7578.000000
-0.08950000 5.30700016 0.05125000 87 79 102 7078.000000
-0.08950000 5.30849981 0.05250000 87 79 102 6807.000000
-0.08950000 5.30749989 0.05325000 91 81 105 7017.000000
-0.08950000 5.30849981 0.05425000 91 81 105 7832.000000
-0.08950000 5.30824995 0.05525000 95 83 105 8635.000000
-0.08950000 5.30849981 0.05625000 95 83 105 7607.000000
-0.08950000 5.30800009 0.05725000 95 82 102 8050.000000
-0.08950000 5.30824995 0.05825000 95 82 102 8560.000000
-0.08950000 5.30674982 0.05925000 92 80 100 7296.000000
-0.08950000 5.30775023 0.06025000 92 80 100 6514.000000
-0.08950000 5.30924988 0.06125000 92 80 100 7132.000000
-0.08950000 5.30975008 0.06225000 90 78 98 7778.000000
-0.08950000 5.30674982 0.06325000 90 78 98 8496.000000
-0.08950000 5.30674982 0.06425000 88 79 98 8278.000000
-0.08950000 5.30625010 0.06525000 88 79 98 7224.000000
-0.08950000 5.30875015 0.06625000 89 80 99 7196.000000
-0.08950000 5.30649996 0.06725000 89 80 99 7314.000000
-0.08950000 5.30725002 0.06825000 89 82 100 8014.000000
-0.08950000 5.30975008 0.06950000 89 82 100 8764.000000
-0.08950000 5.31024981 0.07050000 89 82 100 8182.000000
-0.08950000 5.30875015 0.07125000 88 84 101 8025.000000
-0.08950000 5.30849981 0.07225000 88 84 101 8325.000000
-0.08950000 5.30775023 0.07325000 93 90 107 8164.000000
-0.08950000 5.30849981 0.07425000 93 90 107 9242.000000
-0.08950000 5.30824995 0.07525000 95 92 109 13960.000000
-0.08950000 5.30900002 0.07650000 95 92 109 20525.000000
-0.08950000 5.30950022 0.07750000 129 128 144 26721.000000
-0.08950000 5.30999994 0.07850000 129 128 144 32489.000000
-0.08950000 5.30924988 0.07925000 186 188 203 38935.000000
-0.08950000 5.30900002 0.08025000 186 188 203 41628.000000
-0.08950000 5.30900002 0.08150000 186 188 203 42210.000000
-0.08950000 5.30849981 0.08225000 222 224 239 37642.000000
-0.08950000 5.30950022 0.08350000 222 224 239 36417.000000
-0.08950000 5.30950022 0.08450000 223 225 240 36128.000000
-0.08950000 5.30900002 0.08550000 223 225 240 36571.000000
-0.08950000 5.31024981 0.08650000 221 224 239 37314.000000
-0.08950000 5.31125021 0.08750000 221 224 239 38753.000000
-0.08950000 5.30975008 0.08850000 231 233 245 42203.000000
-0.08950000 5.30924988 0.08950000 231 233 245 37789.000000
-0.08950000 5.31075001 0.09050000 229 230 234 36557.000000
-0.08950000 5.30950022 0.09150000 229 230 234 38764.000000
-0.08950000 5.30999994 0.09250000 229 230 234 36560.000000
-0.08950000 5.31050014 0.09350000 229 230 232 35553.000000
-0.08950000 5.30950022 0.09450000 229 230 232 36271.000000
-0.08950000 5.31024981 0.09550000 230 231 233 36860.000000
-0.08950000 5.31024981 0.09650000 230 231 233 37314.000000
-0.08950000 5.30999994 0.09750000 229 233 236 36560.000000
-0.08950000 5.30924988 0.09850000 229 233 236 35421.000000
-0.08950000 5.30975008 0.09950000 231 234 239 35417.000000
-0.08950000 5.31024981 0.10050000 231 234 239 35139.000000
-0.08950000 5.30950022 0.10150000 231 234 239 35282.000000
-0.08950000 5.31125021 0.10250000 230 235 241 36114.000000
-0.08950000 5.31024981 0.10350000 230 235 241 36121.000000
-0.08950000 5.31075001 0.10450000 229 234 240 37464.000000
-0.08950000 5.31024981 0.10550000 229 234 240 37942.000000
-0.08975000 5.31250000 0.10650000 227 232 236 37453.000000
-0.08975000 5.31174994 0.10750000 227 232 236 35128.000000
-0.08975000 5.31250000 0.10850000 228 232 235 34582.000000
-0.08975000 5.31225014 0.10950000 228 232 235 31667.000000
-0.08975000 5.31174994 0.11050000 224 225 227 20510.000000
-0.08975000 5.31225014 0.11150000 224 225 227 9292.000000
-0.08825000 5.29500008 -0.00300000 151 132 115 3407.000000
-0.08825000 5.29325008 -0.00200000 127 109 99 3985.000000
-0.08825000 5.29374981 -0.00100000 127 109 99 4182.000000
-0.08850000 5.30700016 0.00000000 103 85 83 2367.000000
-0.08850000 5.30249977 0.00275000 128 113 120 9025.000000
-0.08850000 5.30399990 0.00375000 128 113 120 21425.000000
-0.08850000 5.30224991 0.00475000 166 154 168 32310.000000
-0.08850000 5.30249977 0.00575000 166 154 168 35617.000000
-0.08850000 5.30249977 0.00675000 211 202 219 35064.000000
-0.08850000 5.30249977 0.00775000 211 202 219 37225.000000
-0.08850000 5.30324984 0.00875000 227 223 240 38653.000000
-0.08850000 5.30299997 0.00975000 227 223 240 36182.000000
-0.08850000 5.30224991 0.01075000 222 222 234 36478.000000
-0.08850000 5.30375004 0.01175000 222 222 234 38321.000000
-0.08850000 5.30175018 0.01275000 222 222 234 34800.000000
-0.08850000 5.30399990 0.01375000 223 226 235 35607.000000
-0.08850000 5.30474997 0.01475000 223 226 235 38810.000000
-0.08850000 5.30424976 0.01575000 225 233 236 40553.000000
-0.08850000 5.30375004 0.01675000 225 233 236 39496.000000
-0.08850000 5.30474997 0.01775000 222 230 232 38478.000000
-0.08850000 5.30424976 0.01875000 222 230 232 38646.000000
-0.08850000 5.30399990 0.01975000 227 232 235 39150.000000
-0.08850000 5.30574989 0.02075000 227 232 235 38303.000000
-0.08850000 5.30350018 0.02175000 223 228 231 38489.000000
-0.08850000 5.30399990 0.02275000 223 228 231 39492.000000
-0.08850000 5.30499983 0.02375000 223 228 231 38807.000000
-0.08850000 5.30399990 0.02475000 220 228 231 37064.000000
-0.08850000 5.30450010 0.02575000 220 228 231 36171.000000
-0.08850000 5.30499983 0.02675000 223 233 235 36607.000000
-0.08850000 5.30474997 0.02775000 223 233 235 36907.000000
-0.08850000 5.30499983 0.02875000 226 236 238 36603.000000
-0.08850000 5.30625010 0.02975000 226 236 238 37196.000000
-0.08850000 5.30649996 0.03075000 224 235 239 38139.000000
-0.08850000 5.30499983 0.03175000 224 235 239 38153.000000
-0.08850000 5.30550003 0.03275000 224 235 239 37825.000000
-0.08850000 5.30525017 0.03375000 221 232 238 36021.000000
-0.08850000 5.30424976 0.03475000 221 232 238 35739.000000
-0.08850000 5.30450010 0.03575000 220 230 239 35464.000000
-0.08850000 5.30399990 0.03675000 220 230 239 30757.000000
-0.08850000 5.30525017 0.03775000 227 235 246 25828.000000
-0.08850000 5.30625010 0.03875000 227 235 246 19735.000000
-0.08850000 5.30474997 0.03975000 205 211 225 13592.000000
-0.08850000 5.30574989 0.04075000 205 211 225 9553.000000
-0.08850000 5.30700016 0.04175000 169 172 187 8914.000000
-0.08850000 5.30749989 0.04275000 169 172 187 8932.000000
-0.08850000 5.30499983 0.04375000 169 172 187 7696.000000
-0.08850000 5.30649996 0.04475000 129 130 148 6842.000000
-0.08850000 5.30749989 0.04575000 129 130 148 6803.000000
-0.08850000 5.30424976 0.04675000 101 98 117 6778.000000
-0.08850000 5.30700016 0.04775000 101 98 117 7296.000000
-0.08850000 5.30725002 0.04875000 90 82 105 7985.000000
-0.08850000 5.30700016 0.04975000 90 82 105 7385.000000
