//X Y Z R G B Intensity
0.78530002 19.51899910 0.47270000 220 226 242 29139.000000
0.78530002 19.51840019 0.47369999 220 226 242 29957.000000
0.78539997 19.52020073 0.47470000 232 236 248 30821.000000
0.78530002 19.51770020 0.47560000 232 236 248 30703.000000
0.78530002 19.51939964 0.47670001 232 236 248 30492.000000
0.78530002 19.51930046 0.47770000 232 236 248 29957.000000
0.78530002 19.51740074 0.47860000 232 236 248 29539.000000
0.78520000 19.51619911 0.47960001 232 236 248 28939.000000
0.78520000 19.51659966 0.48060000 232 236 248 26939.000000
0.78530002 19.51779938 0.48159999 232 236 248 22782.000000
0.78530002 19.51950073 0.48269999 207 210 219 16632.000000
0.78579998 19.53140068 0.48400000 207 210 219 10875.000000
0.78649998 19.54800034 0.48539999 207 210 219 7500.000000
0.78839999 19.56920052 0.37310001 89 76 94 19225.000000
0.78789997 19.55559921 0.37390000 89 76 94 24460.000000
0.78770000 19.55069923 0.37480000 89 76 94 27250.000000
0.78759998 19.54920006 0.37570000 89 76 94 28510.000000
0.78750002 19.54719925 0.37670001 142 133 152 29485.000000
0.78750002 19.54719925 0.37770000 142 133 152 28139.000000
0.78740001 19.54529953 0.37860000 142 133 152 27771.000000
0.78750002 19.54599953 0.37970001 142 133 152 27946.000000
0.78740001 19.54360008 0.38060001 142 133 152 28985.000000
0.78740001 19.54459953 0.38170001 142 133 152 30210.000000
0.78740001 19.54549980 0.38270000 142 133 152 29385.000000
0.78740001 19.54430008 0.38370001 142 133 152 29282.000000
0.78740001 19.54299927 0.38470000 211 206 226 29082.000000
0.78740001 19.54409981 0.38580000 211 206 226 28985.000000
0.78740001 19.54310036 0.38679999 211 206 226 29996.000000
0.78719997 19.54000092 0.38769999 211 206 226 30635.000000
0.78729999 19.54150009 0.38880000 211 206 226 29996.000000
0.78729999 19.54240036 0.38980001 211 206 226 29478.000000
0.78719997 19.54010010 0.39070001 211 206 226 28496.000000
0.78719997 19.53960037 0.39170000 211 206 226 27317.000000
0.78719997 19.53820038 0.39260000 211 206 226 26146.000000
0.78719997 19.53949928 0.39359999 213 211 232 26475.000000
0.78729999 19.54109955 0.39469999 213 211 232 26478.000000
0.78719997 19.53890038 0.39559999 213 211 232 26803.000000
0.78719997 19.53949928 0.39660001 213 211 232 27492.000000
0.78719997 19.53860092 0.39760000 213 211 232 27492.000000
0.78719997 19.53890038 0.39860001 213 211 232 26553.000000
0.78719997 19.53800011 0.39960000 213 211 232 27314.000000
0.78710002 19.53590012 0.40050000 213 211 232 27396.000000
0.78719997 19.53840065 0.40160000 200 203 222 27757.000000
0.78719997 19.53779984 0.40259999 200 203 222 28589.000000
0.78719997 19.53809929 0.40360001 200 203 222 29271.000000
0.78710002 19.53750038 0.40459999 200 203 222 29989.000000
0.78710002 19.53759956 0.40560001 200 203 222 28492.000000
0.78700000 19.53429985 0.40650001 200 203 222 28296.000000
0.78710002 19.53750038 0.40759999 200 203 222 28878.000000
0.78710002 19.53560066 0.40849999 200 203 222 28021.000000
0.78719997 19.53820038 0.40950000 224 229 249 27842.000000
0.78710002 19.53610039 0.41049999 224 229 249 27310.000000
0.78700000 19.53400040 0.41139999 224 229 249 26796.000000
0.78700000 19.53440094 0.41240001 224 229 249 27139.000000
0.78700000 19.53499985 0.41339999 224 229 249 28485.000000
0.78700000 19.53499985 0.41440001 224 229 249 29267.000000
0.78700000 19.53260040 0.41530001 224 229 249 29264.000000
0.78710002 19.53700066 0.41639999 224 229 249 29167.000000
0.78700000 19.53319931 0.41729999 218 225 244 28678.000000
0.78700000 19.53359985 0.41830000 218 225 244 28678.000000
0.78700000 19.53339958 0.41929999 218 225 244 27835.000000
0.78700000 19.53479958 0.42039999 218 225 244 27225.000000
0.78700000 19.53310013 0.42129999 218 225 244 26542.000000
0.78689998 19.53190041 0.42230001 218 225 244 24214.000000
0.78700000 19.53310013 0.42340001 218 225 244 22925.000000
0.78689998 19.53240013 0.42440000 218 225 244 20910.000000
0.78700000 19.53289986 0.42539999 191 197 219 18242.000000
0.78680003 19.52919960 0.42629999 191 197 219 15846.000000
0.78689998 19.53109932 0.42730001 191 197 219 15225.000000
0.78689998 19.53140068 0.42840001 191 197 219 17603.000000
0.78689998 19.53109932 0.42940000 191 197 219 21064.000000
0.78689998 19.53140068 0.43040001 191 197 219 23107.000000
0.78689998 19.53170013 0.43140000 191 197 219 24146.000000
0.78689998 19.53020096 0.43230000 191 197 219 24357.000000
0.78680003 19.52849960 0.43329999 146 152 176 26132.000000
0.78680003 19.52919960 0.43430001 146 152 176 27039.000000
0.78689998 19.53140068 0.43540001 146 152 176 27746.000000
0.78680003 19.52860069 0.43630001 146 152 176 27742.000000
0.78680003 19.52840042 0.43730000 146 152 176 28196.000000
0.78680003 19.52829933 0.43830001 146 152 176 28010.000000
0.78670001 19.52779961 0.43930000 146 152 176 28667.000000
0.78680003 19.52919960 0.44040000 146 152 176 28960.000000
0.78680003 19.52840042 0.44139999 146 152 176 29557.000000
0.78670001 19.52740097 0.44240001 202 208 232 28860.000000
0.78670001 19.52720070 0.44340000 202 208 232 28382.000000
0.78670001 19.52639961 0.44440001 202 208 232 28196.000000
0.78670001 19.52560043 0.44540000 202 208 232 28192.000000
0.78659999 19.52519989 0.44639999 202 208 232 28857.000000
0.78670001 19.52700043 0.44740000 202 208 232 28571.000000
0.78670001 19.52600098 0.44839999 202 208 232 28860.000000
0.78670001 19.52729988 0.44940001 202 208 232 28107.000000
0.78670001 19.52619934 0.45039999 209 215 237 27739.000000
0.78659999 19.52479935 0.45130000 209 215 237 27207.000000
0.78659999 19.52420044 0.45230001 209 215 237 27121.000000
0.78659999 19.52479935 0.45330000 209 215 237 27207.000000
0.78659999 19.52370071 0.45429999 209 215 237 27207.000000
0.78659999 19.52379990 0.45530000 209 215 237 27821.000000
0.78659999 19.52440071 0.45629999 209 215 237 28664.000000
0.78659999 19.52350044 0.45730001 209 215 237 28953.000000
0.78649998 19.52219963 0.45829999 203 208 228 29246.000000
0.78649998 19.52179909 0.45930001 203 208 228 29857.000000
0.78649998 19.52020073 0.46020001 203 208 228 30385.000000
0.78659999 19.52319908 0.46129999 203 208 228 29964.000000
0.78649998 19.52009964 0.46219999 203 208 228 29646.000000
0.78649998 19.52149963 0.46329999 203 208 228 29546.000000
0.78640002 19.51980019 0.46419999 203 208 228 30060.000000
0.78649998 19.52160072 0.46529999 203 208 228 29960.000000
0.78649998 19.52099991 0.46619999 220 226 242 30603.000000
0.78649998 19.52169991 0.46720001 220 226 242 29546.000000
0.78640002 19.51930046 0.46810001 220 226 242 29042.000000
0.78640002 19.51899910 0.46910000 220 226 242 28846.000000
0.78640002 19.51989937 0.47009999 220 226 242 28657.000000
0.78640002 19.51799965 0.47110000 220 226 242 28749.000000
0.78640002 19.51770020 0.47209999 220 226 242 29339.000000
0.78640002 19.51939964 0.47310001 220 226 242 29439.000000
0.78640002 19.51880074 0.47409999 232 236 248 30382.000000
0.78649998 19.52020073 0.47510001 232 236 248 30385.000000
0.78640002 19.51819992 0.47610000 232 236 248 29439.000000
0.78640002 19.51779938 0.47710001 232 236 248 29339.000000
0.78640002 19.51749992 0.47810000 232 236 248 28942.000000
0.78630000 19.51670074 0.47909999 232 236 248 29539.000000
0.78640002 19.51740074 0.48010001 232 236 248 29742.000000
0.78630000 19.51670074 0.48100001 232 236 248 28553.000000
0.78640002 19.51880074 0.48210001 207 210 219 23864.000000
0.78649998 19.52169991 0.48310000 207 210 219 17446.000000
0.78680003 19.52949905 0.48429999 207 210 219 11903.000000
0.78750002 19.54540062 0.48570001 207 210 219 7578.000000
0.78850001 19.57010078 0.48730001 207 210 219 5275.000000
0.78979999 19.57999992 0.37290001 89 76 94 17689.000000
0.78899997 19.55879974 0.37349999 89 76 94 23267.000000
0.78869998 19.55260086 0.37439999 89 76 94 26996.000000
0.78860003 19.54960060 0.37529999 89 76 94 28325.000000
0.78860003 19.54940033 0.37639999 89 76 94 28510.000000
0.78850001 19.54590034 0.37729999 142 133 152 27771.000000
0.78850001 19.54529953 0.37830001 142 133 152 27503.000000
0.78850001 19.54529953 0.37930000 142 133 152 27589.000000
0.78839999 19.54520035 0.38029999 142 133 152 28317.000000
0.78850001 19.54590034 0.38130000 142 133 152 29689.000000
0.78850001 19.54520035 0.38229999 142 133 152 30321.000000
0.78850001 19.54529953 0.38330001 142 133 152 30321.000000
0.78850001 19.54529953 0.38429999 142 133 152 30321.000000
0.78839999 19.54299927 0.38519999 211 206 226 30207.000000
0.78839999 19.54450035 0.38620001 211 206 226 30000.000000
0.78839999 19.54420090 0.38720000 211 206 226 29896.000000
0.78829998 19.54039955 0.38810000 211 206 226 29475.000000
0.78839999 19.54339981 0.38920000 211 206 226 29082.000000
0.78829998 19.54129982 0.39019999 211 206 226 28128.000000
0.78829998 19.54089928 0.39120001 211 206 226 27764.000000
0.78820002 19.53949928 0.39210001 211 206 226 25678.000000
0.78820002 19.53879929 0.39309999 213 211 232 25374.000000
0.78820002 19.53980064 0.39420000 213 211 232 26639.000000
0.78829998 19.54129982 0.39520001 213 211 232 27235.000000
0.78829998 19.54159927 0.39620000 213 211 232 27235.000000
0.78829998 19.54120064 0.39719999 213 211 232 26807.000000
0.78829998 19.54100037 0.39820001 213 211 232 27403.000000
0.78820002 19.53940010 0.39919999 213 211 232 28307.000000
0.78820002 19.53770065 0.40009999 213 211 232 28214.000000
0.78820002 19.53860092 0.40110001 200 203 222 27400.000000
0.78829998 19.54019928 0.40220001 200 203 222 28403.000000
0.78810000 19.53639984 0.40310001 200 203 222 29071.000000
0.78820002 19.53800011 0.40410000 200 203 222 29989.000000
0.78810000 19.53730011 0.40509999 200 203 222 29989.000000
0.78810000 19.53649902 0.40610000 200 203 222 29775.000000
0.78810000 19.53700066 0.40709999 200 203 222 29985.000000
0.78810000 19.53730011 0.40810001 200 203 222 29778.000000
0.78810000 19.53649902 0.40910000 224 229 249 29675.000000
0.78810000 19.53630066 0.41010001 224 229 249 29167.000000
0.78799999 19.53479958 0.41110000 224 229 249 28778.000000
0.78810000 19.53630066 0.41220000 224 229 249 28121.000000
0.78799999 19.53490067 0.41310000 224 229 249 27753.000000
0.78799999 19.53409958 0.41409999 224 229 249 28017.000000
0.78799999 19.53249931 0.41510001 224 229 249 27925.000000
0.78799999 19.53450012 0.41610000 224 229 249 27660.000000
0.78799999 19.53380013 0.41710001 218 225 244 28392.000000
0.78810000 19.53490067 0.41810000 218 225 244 28778.000000
0.78789997 19.53149986 0.41900000 218 225 244 28578.000000
0.78799999 19.53289986 0.41999999 218 225 244 27750.000000
0.78789997 19.53050041 0.42100000 218 225 244 27039.000000
0.78789997 19.53179932 0.42199999 218 225 244 25900.000000
0.78799999 19.53380013 0.42300001 218 225 244 25292.000000
0.78789997 19.53120041 0.42390001 218 225 244 24703.000000
0.78799999 19.53280067 0.42500001 218 225 244 22864.000000
0.78789997 19.53109932 0.42590001 191 197 219 20703.000000
0.78780001 19.52919960 0.42690000 191 197 219 18239.000000
0.78780001 19.52919960 0.42789999 191 197 219 17671.000000
0.78789997 19.53100014 0.42899999 191 197 219 19846.000000
0.78789997 19.53179932 0.43000001 191 197 219 21757.000000
0.78780001 19.52960014 0.43090001 191 197 219 23614.000000
0.78780001 19.52899933 0.43189999 191 197 219 24989.000000
0.78770000 19.52740097 0.43290001 191 197 219 26871.000000
0.78789997 19.53050041 0.43399999 146 152 176 27832.000000
0.78780001 19.52809906 0.43489999 146 152 176 28960.000000
0.78780001 19.52930069 0.43590000 146 152 176 28960.000000
0.78780001 19.52890015 0.43689999 146 152 176 28575.000000
0.78780001 19.52750015 0.43790001 146 152 176 27560.000000
0.78770000 19.52729988 0.43880001 146 152 176 27210.000000
0.78780001 19.52770042 0.43979999 146 152 176 28385.000000
0.78780001 19.52750015 0.44080001 146 152 176 29657.000000
0.78780001 19.52779961 0.44180000 202 208 232 29453.000000
0.78770000 19.52700043 0.44279999 202 208 232 29453.000000
0.78770000 19.52700043 0.44380000 202 208 232 29149.000000
0.78759998 19.52440071 0.44479999 202 208 232 29049.000000
0.78770000 19.52549934 0.44580001 202 208 232 29653.000000
0.78770000 19.52549934 0.44690001 202 208 232 29553.000000
0.78770000 19.52720070 0.44790000 202 208 232 29760.000000
0.78759998 19.52359962 0.44890001 202 208 232 28953.000000
0.78770000 19.52619934 0.44990000 209 215 237 27825.000000
0.78759998 19.52460098 0.45089999 209 215 237 27735.000000
0.78759998 19.52470016 0.45190001 209 215 237 27378.000000
0.78770000 19.52510071 0.45289999 209 215 237 27739.000000
0.78750002 19.52239990 0.45379999 209 215 237 27467.000000
0.78759998 19.52420044 0.45490000 209 215 237 28100.000000
0.78759998 19.52289963 0.45580000 209 215 237 28467.000000
0.78750002 19.52210045 0.45680001 209 215 237 29750.000000
0.78759998 19.52300072 0.45780000 203 208 228 29753.000000
0.78750002 19.52039909 0.45879999 203 208 228 29542.000000
0.78750002 19.52239990 0.45980000 203 208 228 29350.000000
0.78750002 19.52230072 0.46079999 203 208 228 29446.000000
0.78750002 19.52199936 0.46180001 203 208 228 29650.000000
0.78750002 19.52219963 0.46280000 203 208 228 30171.000000
0.78770000 19.52560043 0.46390000 203 208 228 30610.000000
0.78750002 19.52050018 0.46480000 203 208 228 29960.000000
0.78750002 19.52230072 0.46579999 220 226 242 29246.000000
0.78740001 19.51959991 0.46680000 220 226 242 29342.000000
0.78740001 19.51860046 0.46779999 220 226 242 28749.000000
0.78750002 19.52090073 0.46880001 220 226 242 28753.000000
0.78740001 19.51980019 0.46980000 220 226 242 28092.000000
0.78740001 19.51919937 0.47080001 220 226 242 28946.000000
0.78740001 19.51880074 0.47180000 220 226 242 29642.000000
0.78740001 19.51910019 0.47270000 220 226 242 30382.000000
0.78740001 19.51810074 0.47369999 220 226 242 30489.000000
0.78740001 19.51950073 0.47470000 232 236 248 29646.000000
0.78729999 19.51759911 0.47560000 232 236 248 29953.000000
0.78729999 19.51720047 0.47659999 232 236 248 29639.000000
0.78729999 19.51689911 0.47760001 232 236 248 29435.000000
0.78729999 19.51619911 0.47860000 232 236 248 30703.000000
0.78740001 19.51799965 0.47960001 232 236 248 30928.000000
0.78729999 19.51770020 0.48060000 232 236 248 28089.000000
0.78740001 19.51959991 0.48170000 232 236 248 22664.000000
0.78750002 19.52050018 0.48269999 207 210 219 16196.000000
0.78789997 19.53079987 0.48400000 207 210 219 10607.000000
0.78860003 19.54780006 0.48539999 207 210 219 7082.000000
0.79060000 19.57719994 0.37230000 89 76 94 17910.000000
0.79000002 19.56110001 0.37300000 89 76 94 22964.000000
0.78969997 19.55340004 0.37390000 89 76 94 26410.000000
0.78950000 19.54949951 0.37480000 89 76 94 27778.000000
0.78950000 19.54969978 0.37580001 89 76 94 27953.000000
0.78950000 19.54829979 0.37680000 142 133 152 27160.000000
0.78930002 19.54490089 0.37770000 142 133 152 27585.000000
0.78930002 19.54420090 0.37869999 142 133 152 28314.000000
0.78930002 19.54409981 0.37970001 142 133 152 28696.000000
0.78920001 19.54240036 0.38069999 142 133 152 29682.000000
0.78930002 19.54509926 0.38170001 142 133 152 29900.000000
0.78930002 19.54509926 0.38270000 142 133 152 29482.000000
0.78920001 19.54249954 0.38370001 142 133 152 29478.000000
0.78930002 19.54380035 0.38470000 211 206 226 29582.000000
0.78920001 19.54120064 0.38569999 211 206 226 29175.000000
0.78930002 19.54319954 0.38679999 211 206 226 28596.000000
0.78920001 19.54150009 0.38780001 211 206 226 28032.000000
0.78920001 19.54050064 0.38880000 211 206 226 28217.000000
0.78920001 19.54140091 0.38980001 211 206 226 27582.000000
0.78920001 19.54100037 0.39070001 211 206 226 27317.000000
0.78920001 19.54210091 0.39170000 211 206 226 26478.000000
0.78909999 19.53980064 0.39269999 211 206 226 25835.000000
0.78909999 19.53960037 0.39370000 213 211 232 25835.000000
0.78930002 19.54339981 0.39469999 213 211 232 27060.000000
0.78909999 19.53940010 0.39559999 213 211 232 26803.000000
0.78909999 19.53940010 0.39660001 213 211 232 26553.000000
0.78909999 19.53949928 0.39760000 213 211 232 27317.000000
0.78920001 19.54080009 0.39860001 213 211 232 27850.000000
0.78920001 19.54070091 0.39960000 213 211 232 28310.000000
0.78909999 19.53899956 0.40050000 213 211 232 27935.000000
0.78909999 19.53820038 0.40149999 200 203 222 27842.000000
0.78899997 19.53520012 0.40250000 200 203 222 29067.000000
0.78909999 19.53820038 0.40349999 200 203 222 29075.000000
0.78909999 19.53849983 0.40450001 200 203 222 30092.000000
0.78909999 19.53789902 0.40549999 200 203 222 30307.000000
0.78909999 19.53800011 0.40660000 200 203 222 30525.000000
0.78909999 19.53919983 0.40759999 200 203 222 30742.000000
0.78909999 19.53789902 0.40849999 200 203 222 30853.000000
0.78899997 19.53739929 0.40950000 224 229 249 30739.000000
0.78899997 19.53549957 0.41040000 224 229 249 30735.000000
0.78899997 19.53560066 0.41139999 224 229 249 29571.000000
0.78899997 19.53529930 0.41240001 224 229 249 28971.000000
0.78899997 19.53610039 0.41339999 224 229 249 28778.000000
0.78890002 19.53400040 0.41440001 224 229 249 27835.000000
0.78890002 19.53459930 0.41540000 224 229 249 27571.000000
0.78890002 19.53339958 0.41630000 224 229 249 27928.000000
0.78890002 19.53520012 0.41740000 218 225 244 28778.000000
0.78890002 19.53319931 0.41830000 218 225 244 29264.000000
0.78890002 19.53450012 0.41940001 218 225 244 28207.000000
0.78880000 19.53160095 0.42030001 218 225 244 27832.000000
0.78890002 19.53310013 0.42140001 218 225 244 26878.000000
0.78890002 19.53319931 0.42240000 218 225 244 26796.000000
0.78890002 19.53310013 0.42340001 218 225 244 26300.000000
0.78880000 19.53170013 0.42440000 218 225 244 25824.000000
0.78880000 19.53229904 0.42539999 191 197 219 22800.000000
0.78869998 19.53030014 0.42640001 191 197 219 19396.000000
0.78880000 19.53089905 0.42739999 191 197 219 16175.000000
0.78880000 19.53170013 0.42840001 191 197 219 15500.000000
0.78880000 19.53070068 0.42940000 191 197 219 17710.000000
0.78880000 19.53050041 0.43040001 191 197 219 20607.000000
0.78869998 19.52849960 0.43130001 191 197 219 22921.000000
0.78869998 19.52910042 0.43230000 191 197 219 24917.000000
0.78869998 19.53000069 0.43340001 146 152 176 27039.000000
0.78869998 19.52829933 0.43430001 146 152 176 28289.000000
0.78869998 19.52949905 0.43540001 146 152 176 28864.000000
0.78869998 19.52989960 0.43640000 146 152 176 28867.000000
0.78869998 19.52919960 0.43740001 146 152 176 28010.000000
0.78860003 19.52650070 0.43840000 146 152 176 27650.000000
0.78860003 19.52619934 0.43939999 146 152 176 27210.000000
0.78860003 19.52779961 0.44040000 146 152 176 28571.000000
0.78869998 19.52829933 0.44150001 202 208 232 28767.000000
0.78860003 19.52650070 0.44250000 202 208 232 29053.000000
0.78860003 19.52779961 0.44350001 202 208 232 29357.000000
0.78869998 19.52820015 0.44450000 202 208 232 29057.000000
0.78860003 19.52689934 0.44540000 202 208 232 29760.000000
0.78860003 19.52630043 0.44639999 202 208 232 29450.000000
0.78860003 19.52700043 0.44740000 202 208 232 29553.000000
0.78850001 19.52540016 0.44830000 202 208 232 28760.000000
0.78850001 19.52490044 0.44929999 202 208 232 28282.000000
0.78850001 19.52490044 0.45030001 209 215 237 28282.000000
0.78850001 19.52490044 0.45130000 209 215 237 27646.000000
0.78850001 19.52420044 0.45230001 209 215 237 27467.000000
0.78850001 19.52339935 0.45330000 209 215 237 27735.000000
0.78850001 19.52409935 0.45429999 209 215 237 27121.000000
0.78850001 19.52280045 0.45530000 209 215 237 26692.000000
0.78850001 19.52359962 0.45629999 209 215 237 26950.000000
0.78850001 19.52379990 0.45730001 209 215 237 28003.000000
0.78839999 19.52179909 0.45829999 203 208 228 28278.000000
0.78839999 19.52169991 0.45930001 203 208 228 28564.000000
0.78839999 19.52199936 0.46030000 203 208 228 29246.000000
0.78839999 19.52199936 0.46120000 203 208 228 29860.000000
0.78839999 19.52249908 0.46219999 203 208 228 30935.000000
0.78839999 19.52140045 0.46320000 203 208 228 30603.000000
0.78839999 19.52249908 0.46419999 203 208 228 29650.000000
0.78839999 19.52179909 0.46520001 203 208 228 28757.000000
0.78839999 19.52160072 0.46610001 220 226 242 28757.000000
0.78839999 19.52079964 0.46709999 220 226 242 29139.000000
0.78839999 19.52020073 0.46810001 220 226 242 28849.000000
0.78829998 19.51980019 0.46910000 220 226 242 28464.000000
0.78839999 19.52079964 0.47009999 220 226 242 28560.000000
0.78829998 19.51889992 0.47110000 220 226 242 28182.000000
0.78829998 19.51860046 0.47209999 220 226 242 29039.000000
0.78829998 19.51819992 0.47310001 220 226 242 29439.000000
0.78829998 19.51950073 0.47409999 232 236 248 29857.000000
0.78820002 19.51700020 0.47510001 232 236 248 29742.000000
0.78820002 19.51720047 0.47610000 232 236 248 29742.000000
0.78829998 19.51790047 0.47710001 232 236 248 29853.000000
0.78829998 19.51810074 0.47810000 232 236 248 30164.000000
0.78820002 19.51600075 0.47900000 232 236 248 30053.000000
0.78820002 19.51679993 0.47999999 232 236 248 28846.000000
0.78829998 19.51860046 0.48109999 232 236 248 26117.000000
0.78820002 19.51700020 0.48199999 207 210 219 20592.000000
0.78839999 19.52169991 0.48310000 207 210 219 14871.000000
0.78890002 19.53350067 0.48440000 207 210 219 9885.000000
0.78960001 19.55080032 0.48580000 207 210 219 6578.000000
0.79140002 19.56999969 0.37270001 89 76 94 19617.000000
0.79089999 19.55669975 0.37349999 89 76 94 24600.000000
0.79070002 19.55330086 0.37450001 89 76 94 26742.000000
0.79049999 19.54739952 0.37529999 89 76 94 27414.000000
0.79049999 19.54750061 0.37639999 89 76 94 27682.000000
0.79049999 19.54770088 0.37740001 142 133 152 29392.000000
0.79049999 19.54739952 0.37840000 142 133 152 29796.000000
0.79040003 19.54500008 0.37930000 142 133 152 30210.000000
0.79040003 19.54490089 0.38029999 142 133 152 30428.000000
0.79040003 19.54500008 0.38130000 142 133 152 30210.000000
0.79030001 19.54420090 0.38220000 142 133 152 29482.000000
0.79030001 19.54430008 0.38319999 142 133 152 29082.000000
0.79030001 19.54409981 0.38420001 142 133 152 29685.000000
0.79030001 19.54319954 0.38519999 211 206 226 29178.000000
0.79030001 19.54280090 0.38620001 211 206 226 28499.000000
0.79020000 19.54039955 0.38710001 211 206 226 28125.000000
0.79030001 19.54380035 0.38820001 211 206 226 27942.000000
0.79020000 19.54050064 0.38920000 211 206 226 27760.000000
0.79030001 19.54350090 0.39019999 211 206 226 27060.000000
0.79020000 19.54159927 0.39120001 211 206 226 26392.000000
0.79020000 19.54129982 0.39219999 211 206 226 25839.000000
0.79020000 19.53969955 0.39320001 213 211 232 26639.000000
0.79009998 19.53890038 0.39420000 213 211 232 26803.000000
0.79020000 19.54120064 0.39520001 213 211 232 26392.000000
0.79020000 19.54089928 0.39620000 213 211 232 26807.000000
0.79020000 19.54100037 0.39719999 213 211 232 27057.000000
0.79020000 19.54070091 0.39820001 213 211 232 28496.000000
0.79020000 19.53969955 0.39919999 213 211 232 28689.000000
0.79020000 19.54089928 0.40020001 213 211 232 28217.000000
0.79009998 19.53879929 0.40110001 200 203 222 28307.000000
0.79020000 19.54019928 0.40210000 200 203 222 28125.000000
0.79020000 19.53980064 0.40310001 200 203 222 28978.000000
0.79020000 19.53969955 0.40410000 200 203 222 29275.000000
0.79000002 19.53649902 0.40509999 200 203 222 30521.000000
0.79009998 19.53779984 0.40610000 200 203 222 31075.000000
0.79009998 19.53770065 0.40709999 200 203 222 31303.000000
0.79009998 19.53770065 0.40810001 200 203 222 31532.000000
0.79009998 19.53700066 0.40920001 224 229 249 32121.000000
0.79000002 19.53669930 0.41020000 224 229 249 32000.000000
0.79000002 19.53689957 0.41119999 224 229 249 31075.000000
0.79000002 19.53599930 0.41220000 224 229 249 30735.000000
0.79000002 19.53520012 0.41310000 224 229 249 28875.000000
0.79000002 19.53540039 0.41409999 224 229 249 28117.000000
0.79000002 19.53630066 0.41510001 224 229 249 26635.000000
0.78990000 19.53289986 0.41610000 224 229 249 27221.000000
0.79000002 19.53630066 0.41710001 218 225 244 28210.000000
0.79000002 19.53470039 0.41810000 218 225 244 28207.000000
0.78990000 19.53260040 0.41900000 218 225 244 28578.000000
0.78990000 19.53409958 0.41999999 218 225 244 27660.000000
0.78990000 19.53339958 0.42100000 218 225 244 28392.000000
0.79000002 19.53529930 0.42199999 218 225 244 28210.000000
0.78990000 19.53359985 0.42300001 218 225 244 27485.000000
0.79000002 19.53459930 0.42399999 218 225 244 24360.000000
0.78979999 19.53179932 0.42500001 218 225 244 19710.000000
0.78979999 19.53100014 0.42600000 191 197 219 14553.000000
0.78979999 19.53020096 0.42699999 191 197 219 10932.000000
0.78979999 19.53129959 0.42800000 191 197 219 10142.000000
0.78979999 19.53070068 0.42899999 191 197 219 12346.000000
0.78979999 19.53179932 0.43000001 191 197 219 15875.000000
0.78979999 19.53050041 0.43099999 191 197 219 20078.000000
0.78979999 19.53129959 0.43200001 191 197 219 23360.000000
0.78979999 19.53009987 0.43300000 191 197 219 25978.000000
0.78979999 19.53100014 0.43399999 146 152 176 27925.000000
0.78979999 19.53009987 0.43489999 146 152 176 28867.000000
0.78969997 19.52899933 0.43590000 146 152 176 28671.000000
0.78969997 19.52910042 0.43689999 146 152 176 28010.000000
0.78969997 19.52709961 0.43779999 146 152 176 27125.000000
0.78969997 19.52770042 0.43889999 146 152 176 26785.000000
0.78969997 19.52790070 0.43990001 146 152 176 26785.000000
0.78969997 19.52809906 0.44090000 146 152 176 28107.000000
0.78960001 19.52589989 0.44180000 202 208 232 29353.000000
0.78969997 19.52729988 0.44290000 202 208 232 29153.000000
0.78960001 19.52610016 0.44389999 202 208 232 28860.000000
0.78960001 19.52600098 0.44490001 202 208 232 29553.000000
0.78960001 19.52689934 0.44589999 202 208 232 29553.000000
0.78960001 19.52490044 0.44690001 202 208 232 28857.000000
0.78960001 19.52510071 0.44790000 202 208 232 27646.000000
0.78960001 19.52519989 0.44890001 202 208 232 27032.000000
0.78960001 19.52560043 0.44999999 209 215 237 27471.000000
0.78950000 19.52460098 0.45089999 209 215 237 27646.000000
0.78950000 19.52409935 0.45190001 209 215 237 27646.000000
0.78950000 19.52440071 0.45289999 209 215 237 27553.000000
0.78950000 19.52400017 0.45390001 209 215 237 26782.000000
0.78950000 19.52280045 0.45480001 209 215 237 26364.000000
0.78950000 19.52409935 0.45590001 209 215 237 26782.000000
0.78950000 19.52280045 0.45680001 209 215 237 26614.000000
0.78939998 19.52169991 0.45780000 203 208 228 27642.000000
0.78939998 19.52210045 0.45879999 203 208 228 29246.000000
0.78939998 19.52120018 0.45980000 203 208 228 30278.000000
0.78939998 19.52160072 0.46079999 203 208 228 31621.000000
0.78939998 19.52070045 0.46180001 203 208 228 31971.000000
0.78939998 19.52169991 0.46280000 203 208 228 30496.000000
0.78939998 19.52050018 0.46380001 203 208 228 29646.000000
0.78930002 19.51930046 0.46480000 203 208 228 28182.000000
0.78939998 19.52050018 0.46579999 220 226 242 27996.000000
0.78939998 19.52009964 0.46680000 220 226 242 28849.000000
0.78939998 19.52029991 0.46779999 220 226 242 27996.000000
0.78930002 19.51980019 0.46880001 220 226 242 28275.000000
0.78939998 19.52000046 0.46980000 220 226 242 28560.000000
0.78930002 19.51840019 0.47070000 220 226 242 28749.000000
0.78930002 19.51969910 0.47170001 220 226 242 28849.000000
0.78930002 19.51849937 0.47270000 220 226 242 29039.000000
0.78920001 19.51650047 0.47360000 220 226 242 29339.000000
0.78930002 19.51869965 0.47459999 232 236 248 29239.000000
0.78930002 19.51790047 0.47560000 232 236 248 29953.000000
0.78920001 19.51589966 0.47650000 232 236 248 29850.000000
0.78930002 19.51770020 0.47760001 232 236 248 29135.000000
0.78920001 19.51650047 0.47860000 232 236 248 28457.000000
0.78920001 19.51670074 0.47960001 232 236 248 27992.000000
0.78930002 19.51840019 0.48060000 232 236 248 27021.000000
0.78930002 19.51779938 0.48159999 232 236 248 22782.000000
0.78939998 19.51989937 0.48269999 207 210 219 17735.000000
0.78969997 19.52790070 0.48390001 207 210 219 11335.000000
0.79030001 19.54389954 0.48530000 207 210 219 7189.000000
0.79130000 19.56719971 0.48690000 207 210 219 5300.000000
0.79320002 19.58930016 0.37250000 89 76 94 15667.000000
0.79220003 19.56609917 0.37310001 89 76 94 21157.000000
0.79180002 19.55509949 0.37390000 89 76 94 24957.000000
0.79159999 19.55050087 0.37480000 89 76 94 27335.000000
0.79149997 19.54770088 0.37570000 89 76 94 28507.000000
0.79149997 19.54770088 0.37670001 142 133 152 29589.000000
0.79149997 19.54809952 0.37770000 142 133 152 30435.000000
0.79140002 19.54610062 0.37869999 142 133 152 30978.000000
0.79140002 19.54459953 0.37970001 142 133 152 30317.000000
0.79130000 19.54420090 0.38069999 142 133 152 30428.000000
0.79130000 19.54269981 0.38170001 142 133 152 29685.000000
0.79140002 19.54579926 0.38280001 142 133 152 29900.000000
0.79130000 19.54280090 0.38380000 142 133 152 30100.000000
0.79130000 19.54319954 0.38479999 211 206 226 30100.000000
0.79130000 19.54240036 0.38580000 211 206 226 29178.000000
0.79130000 19.54170036 0.38679999 211 206 226 28596.000000
0.79130000 19.54210091 0.38780001 211 206 226 28221.000000
0.79130000 19.54229927 0.38880000 211 206 226 28221.000000
0.79119998 19.54150009 0.38970000 211 206 226 27150.000000
0.79119998 19.54080009 0.39070001 211 206 226 26721.000000
0.79119998 19.54019928 0.39160001 211 206 226 26553.000000
0.79119998 19.54030037 0.39260000 211 206 226 25678.000000
0.79119998 19.54140091 0.39359999 213 211 232 26153.000000
0.79110003 19.53910065 0.39460000 213 211 232 25910.000000
0.79119998 19.54030037 0.39559999 213 211 232 26892.000000
0.79119998 19.53969955 0.39660001 213 211 232 27317.000000
0.79119998 19.54080009 0.39760000 213 211 232 28407.000000
0.79119998 19.53919983 0.39860001 213 211 232 28307.000000
0.79110003 19.53890038 0.39960000 213 211 232 28028.000000
0.79119998 19.53969955 0.40059999 213 211 232 28125.000000
0.79110003 19.53800011 0.40149999 200 203 222 27842.000000
0.79119998 19.53949928 0.40259999 200 203 222 28403.000000
0.79119998 19.53910065 0.40360001 200 203 222 28592.000000
0.79110003 19.53730011 0.40450001 200 203 222 28878.000000
0.79110003 19.53849983 0.40549999 200 203 222 29575.000000
0.79110003 19.53860092 0.40650001 200 203 222 29778.000000
0.79110003 19.53680038 0.40750000 200 203 222 31300.000000
0.79100001 19.53649902 0.40849999 200 203 222 31882.000000
0.79100001 19.53649902 0.40939999 224 229 249 32239.000000
0.79100001 19.53630066 0.41040000 224 229 249 31075.000000
0.79100001 19.53569984 0.41139999 224 229 249 31414.000000
0.79100001 19.53470039 0.41240001 224 229 249 30192.000000
0.79100001 19.53590012 0.41339999 224 229 249 28971.000000
0.79089999 19.53389931 0.41440001 224 229 249 28114.000000
0.79100001 19.53520012 0.41540000 224 229 249 28021.000000
0.79089999 19.53389931 0.41639999 224 229 249 28114.000000
0.79100001 19.53429985 0.41740000 218 225 244 29267.000000
0.79089999 19.53389931 0.41839999 218 225 244 29067.000000
0.79100001 19.53569984 0.41940001 218 225 244 29167.000000
0.79089999 19.53400040 0.42039999 218 225 244 28971.000000
0.79089999 19.53310013 0.42140001 218 225 244 28485.000000
0.79089999 19.53219986 0.42240000 218 225 244 26217.000000
0.79089999 19.53319931 0.42340001 218 225 244 21596.000000
0.79079998 19.53100014 0.42440000 218 225 244 16267.000000
0.79089999 19.53400040 0.42539999 191 197 219 10342.000000
0.79079998 19.53129959 0.42640001 191 197 219 7553.000000
0.79079998 19.53039932 0.42739999 191 197 219 6671.000000
0.79079998 19.52960014 0.42829999 191 197 219 8121.000000
0.79079998 19.52980042 0.42930001 191 197 219 10725.000000
0.79079998 19.52980042 0.43040001 191 197 219 15303.000000
0.79089999 19.53210068 0.43140000 191 197 219 19621.000000
0.79089999 19.53249931 0.43239999 191 197 219 23750.000000
0.79079998 19.53000069 0.43340001 146 152 176 26375.000000
0.79070002 19.52849960 0.43439999 146 152 176 27742.000000
0.79079998 19.52980042 0.43540001 146 152 176 28014.000000
0.79079998 19.52949905 0.43640000 146 152 176 27478.000000
0.79070002 19.52939987 0.43740001 146 152 176 26960.000000
0.79070002 19.52890015 0.43840000 146 152 176 26457.000000
0.79070002 19.52930069 0.43950000 146 152 176 27214.000000
0.79070002 19.52750015 0.44040000 146 152 176 28010.000000
0.79070002 19.52759933 0.44139999 202 208 232 28667.000000
0.79060000 19.52639961 0.44240001 202 208 232 28860.000000
0.79060000 19.52519989 0.44340000 202 208 232 28382.000000
0.79070002 19.52729988 0.44440001 202 208 232 28860.000000
0.79060000 19.52619934 0.44540000 202 208 232 28571.000000
0.79060000 19.52630043 0.44639999 202 208 232 28571.000000
0.79060000 19.52589989 0.44729999 202 208 232 27650.000000
0.79060000 19.52540016 0.44830000 202 208 232 27646.000000
0.79049999 19.52389908 0.44929999 202 208 232 27910.000000
0.79060000 19.52510071 0.45030001 209 215 237 28103.000000
0.79060000 19.52519989 0.45130000 209 215 237 28103.000000
0.79060000 19.52499962 0.45230001 209 215 237 27646.000000
0.79060000 19.52580070 0.45330000 209 215 237 27035.000000
0.79049999 19.52280045 0.45429999 209 215 237 25964.000000
0.79049999 19.52289963 0.45530000 209 215 237 25653.000000
0.79049999 19.52269936 0.45629999 209 215 237 25885.000000
0.79049999 19.52339935 0.45730001 209 215 237 27292.000000
0.79049999 19.52389908 0.45829999 203 208 228 28857.000000
0.79040003 19.52079964 0.45919999 203 208 228 30825.000000
0.79049999 19.52319908 0.46030000 203 208 228 31978.000000
0.79049999 19.52370071 0.46129999 203 208 228 31978.000000
0.79049999 19.52230072 0.46219999 203 208 228 31050.000000
0.79049999 19.52169991 0.46320000 203 208 228 29750.000000
0.79040003 19.52120018 0.46410000 203 208 228 28753.000000
0.79049999 19.52199936 0.46509999 203 208 228 28564.000000
0.79040003 19.52140045 0.46610001 220 226 242 28757.000000
0.79040003 19.51989937 0.46709999 220 226 242 28371.000000
0.79040003 19.52120018 0.46810001 220 226 242 28657.000000
0.79049999 19.52239990 0.46919999 220 226 242 29350.000000
0.79040003 19.51910019 0.47009999 220 226 242 29439.000000
0.79040003 19.51919937 0.47110000 220 226 242 29139.000000
0.79030001 19.51709938 0.47209999 220 226 242 28367.000000
0.79030001 19.51700020 0.47310001 220 226 242 29135.000000
0.79040003 19.51930046 0.47420001 232 236 248 28849.000000
0.79030001 19.51689911 0.47510001 232 236 248 29953.000000
0.79040003 19.51939964 0.47610000 232 236 248 30928.000000
0.79030001 19.51869965 0.47710001 232 236 248 30600.000000
0.79030001 19.51759911 0.47810000 232 236 248 29339.000000
0.79030001 19.51749992 0.47909999 232 236 248 29135.000000
0.79030001 19.51740074 0.47999999 232 236 248 29239.000000
0.79030001 19.51670074 0.48100001 232 236 248 27196.000000
0.79030001 19.51709938 0.48199999 207 210 219 22364.000000
0.79040003 19.52140045 0.48310000 207 210 219 16703.000000
0.79079998 19.53100014 0.48429999 207 210 219 10278.000000
0.79149997 19.54840088 0.48580000 207 210 219 6928.000000
0.79430002 19.59250069 0.37220001 85 72 89 14364.000000
0.79329997 19.56769943 0.37270001 85 72 89 19135.000000
0.79290003 19.55620003 0.37349999 85 72 89 24392.000000
0.79259998 19.55019951 0.37439999 85 72 89 26735.000000
0.79259998 19.54920006 0.37540001 85 72 89 28142.000000
0.79250002 19.54789925 0.37639999 85 72 89 29592.000000
0.79250002 19.54660034 0.37729999 134 122 142 29692.000000
0.79240000 19.54599953 0.37830001 134 122 142 30003.000000
0.79240000 19.54590034 0.37930000 134 122 142 29689.000000
0.79240000 19.54560089 0.38029999 134 122 142 29585.000000
0.79240000 19.54479980 0.38130000 134 122 142 29585.000000
0.79240000 19.54630089 0.38229999 134 122 142 28989.000000
0.79240000 19.54509926 0.38319999 134 122 142 29900.000000
0.79229999 19.54360008 0.38420001 134 122 142 29082.000000
0.79229999 19.54210091 0.38519999 208 200 221 28499.000000
0.79229999 19.54260063 0.38620001 208 200 221 27582.000000
0.79220003 19.54070091 0.38720000 208 200 221 27582.000000
0.79229999 19.54179955 0.38820001 208 200 221 27764.000000
0.79229999 19.54269981 0.38920000 208 200 221 27942.000000
0.79220003 19.54089928 0.39019999 208 200 221 27939.000000
0.79229999 19.54170036 0.39129999 208 200 221 26978.000000
0.79220003 19.54030037 0.39219999 208 200 221 26475.000000
0.79229999 19.54150009 0.39330000 224 221 242 26232.000000
0.79220003 19.54080009 0.39420000 224 221 242 25992.000000
0.79210001 19.53879929 0.39520001 224 221 242 27146.000000
0.79220003 19.54000092 0.39620000 224 221 242 27939.000000
0.79210001 19.53800011 0.39710000 224 221 242 28878.000000
0.79220003 19.54000092 0.39809999 224 221 242 28689.000000
0.79220003 19.53940010 0.39910001 224 221 242 27492.000000
0.79210001 19.53829956 0.40009999 224 221 242 26975.000000
0.79210001 19.53809929 0.40110001 215 216 236 27400.000000
0.79210001 19.53759956 0.40210000 215 216 236 27400.000000
0.79210001 19.53789902 0.40310001 215 216 236 27228.000000
0.79200000 19.53580093 0.40410000 215 216 236 28682.000000
0.79210001 19.53759956 0.40509999 215 216 236 28975.000000
0.79210001 19.53750038 0.40610000 215 216 236 28975.000000
0.79210001 19.53840065 0.40720001 215 216 236 30200.000000
0.79210001 19.53809929 0.40820000 215 216 236 30964.000000
0.79200000 19.53649902 0.40920001 222 225 244 30853.000000
0.79200000 19.53490067 0.41010001 222 225 244 29882.000000
0.79210001 19.53660011 0.41119999 222 225 244 29885.000000
0.79200000 19.53569984 0.41209999 222 225 244 30089.000000
0.79200000 19.53610039 0.41310000 222 225 244 29775.000000
0.79189998 19.53219986 0.41409999 222 225 244 29064.000000
0.79200000 19.53549957 0.41510001 222 225 244 28585.000000
0.79200000 19.53490067 0.41610000 222 225 244 28396.000000
0.79200000 19.53490067 0.41710001 222 225 244 29267.000000
0.79200000 19.53409958 0.41800001 192 197 216 30192.000000
0.79200000 19.53389931 0.41900000 192 197 216 29878.000000
0.79200000 19.53490067 0.41999999 192 197 216 29164.000000
0.79189998 19.53380013 0.42100000 192 197 216 27571.000000
0.79189998 19.53249931 0.42199999 192 197 216 24496.000000
0.79180002 19.53059959 0.42289999 192 197 216 19889.000000
0.79189998 19.53300095 0.42399999 192 197 216 14482.000000
0.79189998 19.53330040 0.42500001 192 197 216 9239.000000
0.79180002 19.53089905 0.42600000 150 155 177 5875.000000
0.79180002 19.53009987 0.42699999 150 155 177 4492.000000
0.79159999 19.52440071 0.42789999 150 155 177 4592.000000
0.79189998 19.53170013 0.42899999 150 155 177 5482.000000
0.79180002 19.52980042 0.43000001 150 155 177 7525.000000
0.79189998 19.53140068 0.43099999 150 155 177 11792.000000
0.79189998 19.53109932 0.43200001 150 155 177 16142.000000
0.79180002 19.53020096 0.43300000 150 155 177 21060.000000
0.79180002 19.53030014 0.43390000 106 110 137 23746.000000
0.79180002 19.52890015 0.43489999 106 110 137 26053.000000
0.79180002 19.53000069 0.43590000 106 110 137 27039.000000
0.79170001 19.52799988 0.43680000 106 110 137 27035.000000
0.79170001 19.52740097 0.43779999 106 110 137 27128.000000
0.79170001 19.52700043 0.43880001 106 110 137 27739.000000
0.79170001 19.52729988 0.43979999 106 110 137 28667.000000
0.79170001 19.52820015 0.44090000 106 110 137 28671.000000
0.79159999 19.52529907 0.44180000 163 167 194 28760.000000
0.79170001 19.52740097 0.44290000 163 167 194 28196.000000
0.79180002 19.52869987 0.44389999 163 167 194 28671.000000
0.79170001 19.52680016 0.44490001 163 167 194 28860.000000
0.79170001 19.52669907 0.44589999 163 167 194 29053.000000
0.79159999 19.52569962 0.44690001 163 167 194 29053.000000
0.79170001 19.52600098 0.44790000 163 167 194 28471.000000
0.79159999 19.52519989 0.44890001 163 167 194 28953.000000
0.79159999 19.52409935 0.44990000 205 209 234 29446.000000
0.79159999 19.52379990 0.45089999 205 209 234 29753.000000
0.79159999 19.52540016 0.45190001 205 209 234 28567.000000
0.79159999 19.52440071 0.45289999 205 209 234 27292.000000
0.79149997 19.52269936 0.45379999 205 209 234 26778.000000
0.79159999 19.52400017 0.45480001 205 209 234 26046.000000
0.79149997 19.52260017 0.45580000 205 209 234 25885.000000
0.79149997 19.52280045 0.45680001 205 209 234 26285.000000
0.79159999 19.52350044 0.45780000 223 225 248 27821.000000
0.79149997 19.52280045 0.45879999 223 225 248 29650.000000
0.79149997 19.52140045 0.45980000 223 225 248 31389.000000
0.79149997 19.52160072 0.46079999 223 225 248 31853.000000
0.79140002 19.52029991 0.46180001 223 225 248 30821.000000
0.79149997 19.52300072 0.46280000 223 225 248 29753.000000
0.79149997 19.52120018 0.46380001 223 225 248 28000.000000
0.79140002 19.52079964 0.46480000 223 225 248 27371.000000
0.79140002 19.51880074 0.46579999 217 220 239 27371.000000
0.79140002 19.51910019 0.46680000 217 220 239 27546.000000
0.79140002 19.52090073 0.46779999 217 220 239 28753.000000
0.79130000 19.51840019 0.46880001 217 220 239 29746.000000
0.79140002 19.51889992 0.46980000 217 220 239 29957.000000
0.79130000 19.51709938 0.47070000 217 220 239 29850.000000
0.79130000 19.51799965 0.47170001 217 220 239 28653.000000
0.79140002 19.51939964 0.47270000 217 220 239 28371.000000
0.79130000 19.51770020 0.47360000 217 220 239 29039.000000
0.79140002 19.51910019 0.47470000 212 214 229 30600.000000
0.79140002 19.51910019 0.47560000 212 214 229 31732.000000
0.79140002 19.51889992 0.47659999 212 214 229 31271.000000
0.79140002 19.51899910 0.47760001 212 214 229 30275.000000
0.79130000 19.51709938 0.47860000 212 214 229 29850.000000
0.79130000 19.51819992 0.47960001 212 214 229 28653.000000
0.79130000 19.51729965 0.48060000 212 214 229 26357.000000
0.79130000 19.51869965 0.48170000 212 214 229 21914.000000
0.79149997 19.52199936 0.48280001 201 203 215 15300.000000
0.79180002 19.53000069 0.48400000 201 203 215 10107.000000
0.79269999 19.55179977 0.48550001 201 203 215 6417.000000
0.79369998 19.57649994 0.48710001 201 203 215 5007.000000
0.79509997 19.58880043 0.37250000 85 72 89 14053.000000
0.79420000 19.56629944 0.37300000 85 72 89 19392.000000
0.79380000 19.55559921 0.37380001 85 72 89 23914.000000
0.79360002 19.55080032 0.37470001 85 72 89 26821.000000
0.79360002 19.55010033 0.37570000 85 72 89 28421.000000
0.79339999 19.54610062 0.37660000 134 122 142 28603.000000
0.79350001 19.54759979 0.37770000 134 122 142 28992.000000
0.79350001 19.54780006 0.37869999 134 122 142 28139.000000
0.79339999 19.54509926 0.37970001 134 122 142 28135.000000
0.79339999 19.54570007 0.38069999 134 122 142 28603.000000
0.79339999 19.54579926 0.38180000 134 122 142 28603.000000
0.79329997 19.54380035 0.38280001 134 122 142 28889.000000
0.79329997 19.54240036 0.38370001 134 122 142 27850.000000
0.79329997 19.54310036 0.38479999 208 200 221 28221.000000
0.79329997 19.54339981 0.38580000 208 200 221 28314.000000
0.79329997 19.54369926 0.38679999 208 200 221 28132.000000
0.79329997 19.54210091 0.38769999 208 200 221 28499.000000
0.79329997 19.54210091 0.38870001 208 200 221 28789.000000
0.79329997 19.54210091 0.38970000 208 200 221 29078.000000
0.79320002 19.54089928 0.39060000 208 200 221 28128.000000
0.79320002 19.54080009 0.39160001 208 200 221 27671.000000
0.79320002 19.54019928 0.39260000 208 200 221 26807.000000
0.79320002 19.53949928 0.39359999 224 221 242 26475.000000
0.79310000 19.53919983 0.39449999 224 221 242 26889.000000
0.79310000 19.53910065 0.39559999 224 221 242 27846.000000
0.79320002 19.53980064 0.39660001 224 221 242 28785.000000
0.79320002 19.53969955 0.39760000 224 221 242 28978.000000
0.79310000 19.53930092 0.39860001 224 221 242 28307.000000
0.79320002 19.53949928 0.39960000 224 221 242 27492.000000
0.79310000 19.53770065 0.40050000 224 221 242 27228.000000
0.79310000 19.53829956 0.40160000 215 216 236 27492.000000
0.79310000 19.53849983 0.40259999 215 216 236 27760.000000
0.79310000 19.53759956 0.40360001 215 216 236 28492.000000
0.79299998 19.53669930 0.40450001 215 216 236 30089.000000
0.79310000 19.53759956 0.40549999 215 216 236 30307.000000
0.79299998 19.53610039 0.40650001 215 216 236 30196.000000
0.79310000 19.53730011 0.40750000 215 216 236 30089.000000
0.79299998 19.53610039 0.40849999 215 216 236 29882.000000
0.79310000 19.53739929 0.40950000 222 225 244 28782.000000
0.79299998 19.53569984 0.41040000 222 225 244 28682.000000
0.79299998 19.53479958 0.41139999 222 225 244 28971.000000
0.79290003 19.53380013 0.41240001 222 225 244 29064.000000
0.79299998 19.53520012 0.41339999 222 225 244 29164.000000
0.79299998 19.53619957 0.41440001 222 225 244 29071.000000
0.79299998 19.53479958 0.41540000 222 225 244 29671.000000
0.79299998 19.53499985 0.41639999 222 225 244 29882.000000
0.79290003 19.53420067 0.41740000 192 197 216 30085.000000
0.79290003 19.53429985 0.41839999 192 197 216 29164.000000
0.79290003 19.53409958 0.41949999 192 197 216 28396.000000
0.79290003 19.53280067 0.42039999 192 197 216 25900.000000
0.79290003 19.53369904 0.42150000 192 197 216 22271.000000
0.79290003 19.53310013 0.42240000 192 197 216 17750.000000
0.79280001 19.53059959 0.42340001 192 197 216 11903.000000
0.79280001 19.53129959 0.42440000 192 197 216 7542.000000
0.79280001 19.53210068 0.42539999 150 155 177 4885.000000
0.79269999 19.52740097 0.42629999 150 155 177 3564.000000
0.79259998 19.52689934 0.42719999 150 155 177 3110.000000
0.79280001 19.53100014 0.42829999 150 155 177 3382.000000
0.79280001 19.53109932 0.42930001 150 155 177 4453.000000
0.79269999 19.52899933 0.43030000 150 155 177 6800.000000
0.79280001 19.53059959 0.43130001 150 155 177 10310.000000
0.79280001 19.53120041 0.43239999 150 155 177 15117.000000
0.79280001 19.53140068 0.43340001 106 110 137 19135.000000
0.79280001 19.53059959 0.43439999 106 110 137 23232.000000
0.79269999 19.52890015 0.43540001 106 110 137 25285.000000
0.79269999 19.52770042 0.43640000 106 110 137 26535.000000
0.79259998 19.52709961 0.43740001 106 110 137 27035.000000
0.79269999 19.52809906 0.43840000 106 110 137 28196.000000
0.79259998 19.52630043 0.43939999 106 110 137 28196.000000
0.79269999 19.52759933 0.44040000 106 110 137 28385.000000
0.79259998 19.52610016 0.44139999 106 110 137 27210.000000
0.79259998 19.52549934 0.44240001 163 167 194 27557.000000
0.79259998 19.52650070 0.44340000 163 167 194 28285.000000
0.79259998 19.52669907 0.44440001 163 167 194 28860.000000
0.79259998 19.52639961 0.44530001 163 167 194 29253.000000
0.79259998 19.52490044 0.44630000 163 167 194 28471.000000
0.79259998 19.52470016 0.44729999 163 167 194 28664.000000
0.79259998 19.52479935 0.44830000 163 167 194 28953.000000
0.79259998 19.52540016 0.44929999 163 167 194 30178.000000
0.79259998 19.52470016 0.45030001 205 209 234 29967.000000
0.79250002 19.52440071 0.45130000 205 209 234 29864.000000
0.79250002 19.52269936 0.45230001 205 209 234 28757.000000
0.79259998 19.52479935 0.45330000 205 209 234 28192.000000
0.79240000 19.52020073 0.45420000 205 209 234 27996.000000
0.79250002 19.52239990 0.45530000 205 209 234 27117.000000
0.79250002 19.52400017 0.45629999 205 209 234 27467.000000
0.79240000 19.52190018 0.45730001 205 209 234 27817.000000
0.79259998 19.52460098 0.45829999 223 225 248 28953.000000
0.79250002 19.52269936 0.45930001 223 225 248 30282.000000
0.79250002 19.52260017 0.46020001 223 225 248 30935.000000
0.79250002 19.52210045 0.46120000 223 225 248 30825.000000
0.79240000 19.52090073 0.46219999 223 225 248 30060.000000
0.79250002 19.52239990 0.46320000 223 225 248 28757.000000
0.79250002 19.52260017 0.46419999 223 225 248 28000.000000
0.79240000 19.52160072 0.46520001 223 225 248 27203.000000
0.79240000 19.51959991 0.46610001 217 220 239 27371.000000
0.79229999 19.51829910 0.46709999 217 220 239 28367.000000
0.79229999 19.51950073 0.46810001 217 220 239 29542.000000
0.79229999 19.51860046 0.46910000 217 220 239 29342.000000
0.79229999 19.51899910 0.47020000 217 220 239 29139.000000
0.79229999 19.51910019 0.47119999 217 220 239 29542.000000
0.79229999 19.51779938 0.47209999 217 220 239 29853.000000
0.79229999 19.51869965 0.47319999 217 220 239 29542.000000
0.79229999 19.51869965 0.47420001 212 214 229 30489.000000
0.79229999 19.51939964 0.47520000 212 214 229 31732.000000
0.79229999 19.51799965 0.47610000 212 214 229 31267.000000
0.79229999 19.51930046 0.47710001 212 214 229 30821.000000
0.79229999 19.51819992 0.47810000 212 214 229 30057.000000
0.79229999 19.51720047 0.47900000 212 214 229 28367.000000
0.79229999 19.51759911 0.47999999 212 214 229 26942.000000
0.79229999 19.51819992 0.48100001 212 214 229 24975.000000
0.79229999 19.51770020 0.48199999 201 203 215 19603.000000
