//X Y Z R G B Intensity
-15.55700016 16.18824959 -0.25700000 124 142 156 828.000000
-15.55099964 16.18199921 -0.25600001 124 142 156 1860.000000
-15.55249977 16.18350029 -0.25500000 124 142 156 3257.000000
-15.55125046 16.18199921 -0.25400001 124 142 156 4510.000000
-15.55049992 16.18124962 -0.25275001 124 142 156 5382.000000
-15.55175018 16.18275070 -0.25200000 118 134 150 5635.000000
-15.55299950 16.18424988 -0.25099999 118 134 150 5010.000000
-15.55375004 16.18474960 -0.25000000 118 134 150 3957.000000
-15.57499981 16.20700073 -0.24525000 118 134 150 9325.000000
-15.57550049 16.20725060 -0.24425000 118 134 150 14757.000000
-15.57724953 16.20924950 -0.24325000 160 173 192 19289.000000
-15.57499981 16.20675087 -0.24225000 160 173 192 22435.000000
-15.57625008 16.20825005 -0.24124999 160 173 192 24371.000000
-15.57425022 16.20599937 -0.24025001 160 173 192 25982.000000
-15.57499981 16.20700073 -0.23925000 160 173 192 26657.000000
-15.57450008 16.20624924 -0.23825000 160 173 192 26732.000000
-15.57499981 16.20700073 -0.23725000 160 173 192 26525.000000
-15.57324982 16.20524979 -0.23625000 160 173 192 25842.000000
-15.57124996 16.20299911 -0.23525000 160 173 192 25514.000000
-15.57299995 16.20475006 -0.23424999 215 226 246 25078.000000
-15.57299995 16.20475006 -0.23325001 215 226 246 25585.000000
-15.57174969 16.20350075 -0.23225001 215 226 246 27367.000000
-15.57225037 16.20400047 -0.23125000 215 226 246 27442.000000
-15.57174969 16.20350075 -0.23025000 215 226 246 28207.000000
-15.57024956 16.20199966 -0.22925000 215 226 246 29167.000000
-15.57100010 16.20274925 -0.22825000 215 226 246 28675.000000
-15.57225037 16.20425034 -0.22724999 215 226 246 29092.000000
-15.57100010 16.20274925 -0.22624999 215 226 246 28121.000000
-15.56949997 16.20125008 -0.22525001 215 226 246 28671.000000
-15.56949997 16.20125008 -0.22425000 236 244 255 28921.000000
-15.56925011 16.20100021 -0.22300000 236 244 255 28671.000000
-15.57024956 16.20199966 -0.22200000 236 244 255 27742.000000
-15.56875038 16.20025063 -0.22100000 236 244 255 26785.000000
-15.57024956 16.20199966 -0.22000000 236 244 255 25710.000000
-15.56925011 16.20100021 -0.21900000 236 244 255 22471.000000
-15.56900024 16.20075035 -0.21799999 236 244 255 18046.000000
-15.56900024 16.20075035 -0.21699999 236 244 255 12967.000000
-15.56925011 16.20100021 -0.21600001 236 244 255 8942.000000
-15.56875038 16.20050049 -0.21500000 229 237 255 5225.000000
-15.56774998 16.19949913 -0.21400000 229 237 255 3532.000000
-15.56850052 16.20025063 -0.21300000 229 237 255 2421.000000
-15.56250000 16.19400024 -0.21200000 229 237 255 1903.000000
-15.56674957 16.19824982 -0.21100000 229 237 255 1550.000000
-15.56949997 16.20125008 -0.21025001 229 237 255 1260.000000
-15.57649994 16.20849991 -0.20925000 229 237 255 1257.000000
-15.56575012 16.19725037 -0.20800000 229 237 255 1221.000000
-15.56274986 16.19425011 -0.20700000 229 237 255 1125.000000
-15.56350040 16.19474983 -0.20600000 189 195 221 1046.000000
-15.56725025 16.19899940 -0.20524999 189 195 221 1078.000000
-15.57575035 16.20775032 -0.20424999 189 195 221 1003.000000
-15.55649948 16.18774986 -0.20299999 189 195 221 957.000000
-15.55825043 16.18950081 -0.20200001 189 195 221 882.000000
-15.56250000 16.19400024 -0.20100001 189 195 221 917.000000
-15.56774998 16.19949913 -0.20025000 189 195 221 996.000000
-15.57225037 16.20400047 -0.19925000 189 195 221 992.000000
-15.56299973 16.19449997 -0.19800000 189 195 221 935.000000
-15.55924988 16.19050026 -0.19700000 189 195 221 910.000000
-15.57800007 16.20999908 -0.19625001 130 136 162 925.000000
-15.56250000 16.19400024 -0.19499999 130 136 162 982.000000
-15.55500031 16.18600082 -0.19400001 130 136 162 935.000000
-15.55900002 16.19025040 -0.19300000 130 136 162 978.000000
-15.57050037 16.20224953 -0.19225000 130 136 162 1078.000000
-15.56075001 16.19224930 -0.19100000 130 136 162 1010.000000
-15.55025005 16.18099976 -0.19000000 130 136 162 935.000000
-15.55550003 16.18675041 -0.18900000 130 136 162 957.000000
-15.55274963 16.18375015 -0.18799999 130 136 162 964.000000
-15.55749989 16.18874931 -0.18700001 118 123 152 921.000000
-15.55125046 16.18225098 -0.18600000 118 123 152 853.000000
-15.55299950 16.18400002 -0.18500000 118 123 152 964.000000
-15.56050014 16.19174957 -0.18400000 118 123 152 1003.000000
-15.55825043 16.18950081 -0.18300000 118 123 152 1003.000000
-15.55500031 16.18625069 -0.18200000 118 123 152 1035.000000
-15.55399990 16.18499947 -0.18099999 118 123 152 1132.000000
-15.56175041 16.19300079 -0.18000001 118 123 152 1207.000000
-15.55550003 16.18675041 -0.17900001 118 123 152 1339.000000
-15.55475044 16.18574905 -0.17800000 118 123 152 1671.000000
-15.55200005 16.18300056 -0.17700000 140 147 175 2089.000000
-15.55624962 16.18750000 -0.17600000 140 147 175 2803.000000
-15.55624962 16.18725014 -0.17500000 140 147 175 3782.000000
-15.55375004 16.18474960 -0.17399999 140 147 175 5596.000000
-15.55325031 16.18449974 -0.17299999 140 147 175 8667.000000
-15.55500031 16.18625069 -0.17200001 140 147 175 12414.000000
-15.55449963 16.18574905 -0.17100000 140 147 175 16635.000000
-15.55375004 16.18474960 -0.17000000 140 147 175 19932.000000
-15.55299950 16.18400002 -0.16900000 140 147 175 22792.000000
-15.55249977 16.18350029 -0.16800000 184 191 217 24435.000000
-15.55274963 16.18375015 -0.16675000 184 191 217 25935.000000
-15.55150032 16.18250084 -0.16575000 184 191 217 26128.000000
-15.55175018 16.18275070 -0.16474999 184 191 217 26889.000000
-15.55150032 16.18250084 -0.16374999 184 191 217 26682.000000
-15.55150032 16.18250084 -0.16275001 184 191 217 27471.000000
-15.55074978 16.18174934 -0.16175000 184 191 217 26964.000000
-15.55125046 16.18225098 -0.16075000 184 191 217 26889.000000
-15.54975033 16.18074989 -0.15975000 184 191 217 26057.000000
-15.54949951 16.18050003 -0.15875000 232 240 255 25928.000000
-15.55099964 16.18199921 -0.15800001 232 240 255 25539.000000
-15.54949951 16.18025017 -0.15700001 232 240 255 26192.000000
-15.54825020 16.17900085 -0.15600000 232 240 255 26189.000000
-15.55000019 16.18099976 -0.15500000 232 240 255 27178.000000
-15.54949951 16.18050003 -0.15400000 232 240 255 27103.000000
-15.54874992 16.17975044 -0.15300000 232 240 255 28232.000000
-15.54924965 16.18000031 -0.15200000 232 240 255 27250.000000
-15.54874992 16.17950058 -0.15099999 232 240 255 26600.000000
-15.54800034 16.17874908 -0.15000001 232 240 255 22835.000000
-15.54775047 16.17849922 -0.14900000 245 255 255 17457.000000
-15.54625034 16.17700005 -0.14800000 245 255 255 11114.000000
-15.54775047 16.17849922 -0.14700000 245 255 255 6017.000000
-15.54924965 16.18149948 -0.25650001 124 142 156 914.000000
-15.54675007 16.17900085 -0.25549999 124 142 156 1792.000000
-15.55099964 16.18350029 -0.25450000 124 142 156 2939.000000
-15.54975033 16.18199921 -0.25350001 124 142 156 4267.000000
-15.55049992 16.18300056 -0.25250000 118 134 150 5200.000000
-15.55150032 16.18400002 -0.25150001 118 134 150 5314.000000
-15.55175018 16.18424988 -0.25049999 118 134 150 5035.000000
-15.55025005 16.18275070 -0.24950001 118 134 150 4092.000000
-15.55525017 16.18799973 -0.24850000 118 134 150 3353.000000
-15.57225037 16.20549965 -0.24474999 118 134 150 8003.000000
-15.57450008 16.20800018 -0.24375001 160 173 192 12732.000000
-15.57425022 16.20775032 -0.24275000 160 173 192 17496.000000
-15.57450008 16.20775032 -0.24175000 160 173 192 22585.000000
-15.57400036 16.20725060 -0.24075000 160 173 192 24192.000000
-15.57349968 16.20675087 -0.23975000 160 173 192 25785.000000
-15.57474995 16.20825005 -0.23875000 160 173 192 25592.000000
-15.57374954 16.20725060 -0.23774999 160 173 192 25982.000000
-15.57400036 16.20750046 -0.23675001 160 173 192 25785.000000
-15.57299995 16.20624924 -0.23575000 160 173 192 25332.000000
-15.57349968 16.20675087 -0.23475000 160 173 192 25717.000000
-15.57075024 16.20400047 -0.23375000 215 226 246 25582.000000
-15.57149982 16.20475006 -0.23275000 215 226 246 25457.000000
-15.57174969 16.20499992 -0.23175000 215 226 246 26450.000000
-15.57124996 16.20450020 -0.23074999 215 226 246 26935.000000
-15.57075024 16.20400047 -0.22975001 215 226 246 27975.000000
-15.56999969 16.20325089 -0.22875001 215 226 246 27975.000000
-15.57024956 16.20350075 -0.22775000 215 226 246 28285.000000
-15.57075024 16.20400047 -0.22675000 215 226 246 27975.000000
-15.57100010 16.20425034 -0.22575000 215 226 246 28203.000000
-15.57050037 16.20350075 -0.22475000 236 244 255 28203.000000
-15.56974983 16.20299911 -0.22375000 236 244 255 28046.000000
-15.56875038 16.20174980 -0.22274999 236 244 255 27971.000000
-15.56999969 16.20325089 -0.22175001 236 244 255 27589.000000
-15.56850052 16.20149994 -0.22075000 236 244 255 25578.000000
-15.56900024 16.20199966 -0.21975000 236 244 255 22878.000000
-15.56875038 16.20199966 -0.21875000 236 244 255 19278.000000
-15.56674957 16.19974899 -0.21775000 236 244 255 14639.000000
-15.56774998 16.20100021 -0.21675000 236 244 255 9360.000000
-15.56424999 16.19725037 -0.21574999 236 244 255 5778.000000
-15.56175041 16.19449997 -0.21475001 229 237 255 3503.000000
-15.56674957 16.19974899 -0.21375000 229 237 255 2617.000000
-15.57050037 16.20375061 -0.21275000 229 237 255 2032.000000
-15.56674957 16.19974899 -0.21175000 229 237 255 1557.000000
-15.56550026 16.19849968 -0.21075000 229 237 255 1260.000000
-15.55825043 16.19099998 -0.20975000 229 237 255 1207.000000
-15.55550003 16.18824959 -0.20874999 229 237 255 1096.000000
-15.55949974 16.19224930 -0.20774999 229 237 255 1103.000000
-15.55774975 16.19050026 -0.20675001 229 237 255 1078.000000
-15.55200005 16.18449974 -0.20550001 189 195 221 957.000000
-15.56674957 16.19974899 -0.20475000 189 195 221 996.000000
-15.57050037 16.20375061 -0.20375000 189 195 221 996.000000
-15.55875015 16.19149971 -0.20275000 189 195 221 1025.000000
-15.56624985 16.19924927 -0.20175000 189 195 221 910.000000
-15.56075001 16.19375038 -0.20074999 189 195 221 917.000000
-15.55624962 16.18899918 -0.19975001 189 195 221 928.000000
-15.55850029 16.19124985 -0.19875000 189 195 221 928.000000
-15.55974960 16.19249916 -0.19775000 189 195 221 964.000000
-15.56700039 16.20000076 -0.19675000 130 136 162 964.000000
-15.56225014 16.19499969 -0.19575000 130 136 162 889.000000
-15.55700016 16.18950081 -0.19475000 130 136 162 860.000000
-15.56974983 16.20274925 -0.19374999 130 136 162 910.000000
-15.56850052 16.20174980 -0.19275001 130 136 162 992.000000
-15.56875038 16.20174980 -0.19175000 130 136 162 857.000000
-15.55799961 16.19050026 -0.19050001 130 136 162 935.000000
-15.55924988 16.19199944 -0.18950000 130 136 162 903.000000
-15.55900002 16.19174957 -0.18850000 130 136 162 889.000000
-15.56599998 16.19899940 -0.18775000 130 136 162 903.000000
-15.56149960 16.19449997 -0.18650000 118 123 152 882.000000
-15.55900002 16.19174957 -0.18550000 118 123 152 971.000000
-15.55999947 16.19300079 -0.18449999 118 123 152 942.000000
-15.55350018 16.18600082 -0.18350001 118 123 152 964.000000
-15.55624962 16.18899918 -0.18250000 118 123 152 1050.000000
-15.55424976 16.18675041 -0.18150000 118 123 152 1057.000000
-15.55449963 16.18725014 -0.18050000 118 123 152 1117.000000
-15.55825043 16.19099998 -0.17950000 118 123 152 1225.000000
-15.55599976 16.18874931 -0.17850000 118 123 152 1503.000000
-15.55249977 16.18499947 -0.17749999 140 147 175 1575.000000
-15.55099964 16.18350029 -0.17649999 140 147 175 1996.000000
-15.55325031 16.18574905 -0.17550001 140 147 175 2453.000000
-15.55350018 16.18600082 -0.17450000 140 147 175 3439.000000
-15.55550003 16.18799973 -0.17375000 140 147 175 4964.000000
-15.55375004 16.18625069 -0.17275000 140 147 175 7142.000000
-15.55299950 16.18549919 -0.17174999 140 147 175 10285.000000
-15.55224991 16.18474960 -0.17050000 140 147 175 14399.000000
-15.55274963 16.18499947 -0.16949999 140 147 175 18382.000000
-15.55325031 16.18574905 -0.16850001 140 147 175 21450.000000
-15.55099964 16.18350029 -0.16750000 184 191 217 22892.000000
-15.55150032 16.18400002 -0.16650000 184 191 217 24496.000000
-15.55125046 16.18350029 -0.16550000 184 191 217 26060.000000
-15.55099964 16.18325043 -0.16450000 184 191 217 26403.000000
-15.55074978 16.18325043 -0.16350000 184 191 217 27107.000000
-15.55099964 16.18325043 -0.16249999 184 191 217 26825.000000
-15.55099964 16.18350029 -0.16150001 184 191 217 26964.000000
-15.54924965 16.18149948 -0.16050000 184 191 217 26467.000000
-15.55000019 16.18250084 -0.15950000 184 191 217 26192.000000
-15.54800034 16.18025017 -0.15850000 232 240 255 25792.000000
-15.54975033 16.18199921 -0.15750000 232 240 255 26057.000000
-15.54949951 16.18174934 -0.15650000 232 240 255 26260.000000
-15.54825020 16.18050003 -0.15549999 232 240 255 26885.000000
-15.54924965 16.18149948 -0.15475000 232 240 255 27846.000000
-15.54949951 16.18174934 -0.15375000 232 240 255 28235.000000
-15.54775047 16.18000031 -0.15275000 232 240 255 27996.000000
-15.54699993 16.17925072 -0.15175000 232 240 255 26053.000000
-15.54775047 16.18000031 -0.15075000 232 240 255 23203.000000
-15.54825020 16.18050003 -0.14974999 245 255 255 17167.000000
-15.54699993 16.17950058 -0.14875001 245 255 255 10396.000000
-15.54625034 16.17849922 -0.14775001 245 255 255 5764.000000
-15.54924965 16.18300056 -0.25600001 124 142 156 1071.000000
-15.54724979 16.18099976 -0.25500000 124 142 156 2014.000000
-15.55099964 16.18474960 -0.25400001 124 142 156 3696.000000
-15.55025005 16.18400002 -0.25299999 124 142 156 4725.000000
-15.55074978 16.18474960 -0.25200000 118 134 150 5300.000000
-15.54899979 16.18275070 -0.25075001 118 134 150 5442.000000
-15.55200005 16.18574905 -0.25000000 118 134 150 4739.000000
-15.55325031 16.18700027 -0.24900000 118 134 150 3560.000000
-15.55375004 16.18774986 -0.24800000 118 134 150 2907.000000
-15.57050037 16.20499992 -0.24625000 118 134 150 3607.000000
-15.57075024 16.20549965 -0.24525000 118 134 150 5985.000000
-15.57299995 16.20775032 -0.24425000 118 134 150 10971.000000
-15.57425022 16.20899963 -0.24325000 160 173 192 15885.000000
-15.57425022 16.20899963 -0.24225000 160 173 192 20367.000000
-15.57374954 16.20849991 -0.24124999 160 173 192 23414.000000
-15.57349968 16.20800018 -0.24025001 160 173 192 24839.000000
-15.57299995 16.20775032 -0.23925000 160 173 192 25914.000000
-15.57299995 16.20775032 -0.23825000 160 173 192 25846.000000
-15.57200050 16.20650101 -0.23725000 160 173 192 25521.000000
-15.57200050 16.20675087 -0.23625000 160 173 192 26175.000000
-15.57124996 16.20599937 -0.23525000 160 173 192 26517.000000
-15.57299995 16.20775032 -0.23424999 215 226 246 25846.000000
-15.57200050 16.20675087 -0.23325001 215 226 246 25842.000000
-15.57174969 16.20624924 -0.23225001 215 226 246 26242.000000
-15.57050037 16.20524979 -0.23125000 215 226 246 26517.000000
-15.57100010 16.20549965 -0.23025000 215 226 246 26867.000000
-15.56925011 16.20375061 -0.22925000 215 226 246 26932.000000
-15.57100010 16.20574951 -0.22825000 215 226 246 26796.000000
-15.57100010 16.20549965 -0.22724999 215 226 246 27442.000000
-15.56949997 16.20400047 -0.22624999 215 226 246 27300.000000
-15.56949997 16.20400047 -0.22525001 215 226 246 27742.000000
-15.56725025 16.20149994 -0.22425000 236 244 255 27664.000000
-15.56900024 16.20350075 -0.22325000 236 244 255 27514.000000
-15.56900024 16.20350075 -0.22225000 236 244 255 26650.000000
-15.56725025 16.20174980 -0.22100000 236 244 255 24585.000000
-15.56674957 16.20125008 -0.22000000 236 244 255 19539.000000
-15.56750011 16.20199966 -0.21900000 236 244 255 14332.000000
-15.56774998 16.20224953 -0.21799999 236 244 255 9117.000000
-15.56599998 16.20050049 -0.21699999 236 244 255 5792.000000
-15.56124973 16.19549942 -0.21600001 236 244 255 3914.000000
-15.56250000 16.19700050 -0.21500000 229 237 255 2657.000000
-15.56700039 16.20149994 -0.21400000 229 237 255 2017.000000
-15.56674957 16.20125008 -0.21300000 229 237 255 1525.000000
-15.56900024 16.20350075 -0.21200000 229 237 255 1246.000000
-15.56949997 16.20425034 -0.21125001 229 237 255 1246.000000
-15.56974983 16.20425034 -0.21025001 229 237 255 1132.000000
-15.56149960 16.19574928 -0.20900001 229 237 255 1125.000000
-15.56649971 16.20075035 -0.20800000 229 237 255 1032.000000
-15.56799984 16.20249939 -0.20725000 229 237 255 992.000000
-15.55224991 16.18625069 -0.20600000 189 195 221 914.000000
-15.56824970 16.20274925 -0.20524999 189 195 221 971.000000
-15.56250000 16.19700050 -0.20424999 189 195 221 971.000000
-15.56674957 16.20125008 -0.20325001 189 195 221 925.000000
-15.54899979 16.18275070 -0.20200001 189 195 221 950.000000
-15.55675030 16.19075012 -0.20100001 189 195 221 1032.000000
-15.57250023 16.20700073 -0.20025000 189 195 221 992.000000
-15.55675030 16.19075012 -0.19900000 189 195 221 964.000000
-15.55999947 16.19425011 -0.19800000 189 195 221 935.000000
-15.56700039 16.20125008 -0.19724999 189 195 221 925.000000
-15.57550049 16.21025085 -0.19625001 130 136 162 942.000000
-15.54775047 16.18149948 -0.19499999 130 136 162 935.000000
-15.55974960 16.19400024 -0.19400001 130 136 162 903.000000
-15.56250000 16.19675064 -0.19300000 130 136 162 942.000000
-15.55550003 16.18950081 -0.19200000 130 136 162 914.000000
-15.55399990 16.18774986 -0.19100000 130 136 162 935.000000
-15.56175041 16.19599915 -0.19000000 130 136 162 921.000000
-15.56200027 16.19625092 -0.18900000 130 136 162 910.000000
-15.56149960 16.19574928 -0.18799999 130 136 162 935.000000
-15.56949997 16.20400047 -0.18725000 118 123 152 935.000000
-15.54675007 16.18050003 -0.18600000 118 123 152 875.000000
-15.55249977 16.18625069 -0.18500000 118 123 152 1035.000000
-15.55000019 16.18375015 -0.18400000 118 123 152 1025.000000
-15.55675030 16.19075012 -0.18300000 118 123 152 989.000000
-15.55074978 16.18474960 -0.18200000 118 123 152 967.000000
-15.55875015 16.19274902 -0.18099999 118 123 152 1064.000000
-15.55449963 16.18849945 -0.18000001 118 123 152 1092.000000
-15.55799961 16.19224930 -0.17900001 118 123 152 1160.000000
-15.55799961 16.19199944 -0.17800000 118 123 152 1375.000000
-15.55375004 16.18774986 -0.17700000 140 147 175 1571.000000
-15.55749989 16.19149971 -0.17600000 140 147 175 1753.000000
-15.55550003 16.18950081 -0.17500000 140 147 175 2042.000000
-15.55049992 16.18424988 -0.17399999 140 147 175 2939.000000
-15.55399990 16.18799973 -0.17299999 140 147 175 4017.000000
-15.55249977 16.18650055 -0.17200001 140 147 175 5853.000000
-15.55025005 16.18400002 -0.17100000 140 147 175 8389.000000
-15.55150032 16.18524933 -0.17000000 140 147 175 11817.000000
-15.55074978 16.18449974 -0.16900000 140 147 175 16235.000000
-15.55125046 16.18524933 -0.16800000 184 191 217 19400.000000
-15.55125046 16.18499947 -0.16700000 184 191 217 22439.000000
-15.55125046 16.18499947 -0.16599999 184 191 217 24796.000000
-15.54949951 16.18325043 -0.16500001 184 191 217 25932.000000
-15.54949951 16.18325043 -0.16400000 184 191 217 26964.000000
-15.55074978 16.18474960 -0.16300000 184 191 217 28003.000000
-15.54924965 16.18300056 -0.16200000 184 191 217 27392.000000
-15.54874992 16.18250084 -0.16075000 184 191 217 26746.000000
-15.54749966 16.18124962 -0.15975000 184 191 217 27539.000000
-15.54775047 16.18149948 -0.15875000 232 240 255 26057.000000
-15.54850006 16.18225098 -0.15775000 232 240 255 26603.000000
-15.54775047 16.18149948 -0.15674999 232 240 255 26960.000000
-15.54825020 16.18199921 -0.15600000 232 240 255 27467.000000
-15.54850006 16.18225098 -0.15500000 232 240 255 28628.000000
-15.54825020 16.18199921 -0.15400000 232 240 255 28796.000000
-15.54775047 16.18149948 -0.15300000 232 240 255 28235.000000
-15.54699993 16.18050003 -0.15200000 232 240 255 26189.000000
-15.54650021 16.18000031 -0.15099999 232 240 255 22235.000000
-15.54699993 16.18074989 -0.15000001 232 240 255 16575.000000
-15.54425049 16.17799950 -0.14900000 245 255 255 10982.000000
-15.54475021 16.17824936 -0.14800000 245 255 255 5728.000000
-15.54749966 16.18275070 -0.25549999 119 139 148 1285.000000
-15.54775047 16.18275070 -0.25450000 119 139 148 2346.000000
-15.54899979 16.18424988 -0.25350001 119 139 148 3592.000000
-15.55200005 16.18725014 -0.25250000 124 142 154 4842.000000
-15.55074978 16.18600082 -0.25150001 124 142 154 5285.000000
-15.55025005 16.18549919 -0.25049999 124 142 154 5171.000000
-15.54749966 16.18275070 -0.24950001 124 142 154 4414.000000
-15.55150032 16.18700027 -0.24850000 124 142 154 3714.000000
-15.55325031 16.18849945 -0.24750000 124 142 154 3082.000000
-15.55825043 16.19375038 -0.24675000 124 142 154 3003.000000
-15.56500053 16.20075035 -0.24575000 124 142 154 3496.000000
-15.57075024 16.20675087 -0.24474999 124 142 154 5728.000000
-15.57225037 16.20849991 -0.24375001 141 157 172 9607.000000
-15.57275009 16.20899963 -0.24275000 141 157 172 15242.000000
-15.57374954 16.20999908 -0.24175000 141 157 172 20207.000000
-15.57349968 16.20974922 -0.24075000 141 157 172 23042.000000
-15.57349968 16.20974922 -0.23975000 141 157 172 25085.000000
-15.57275009 16.20874977 -0.23875000 141 157 172 25460.000000
-15.57075024 16.20675087 -0.23774999 141 157 172 25978.000000
-15.57374954 16.20999908 -0.23675001 141 157 172 26317.000000
-15.57050037 16.20650101 -0.23575000 141 157 172 26796.000000
-15.57200050 16.20800018 -0.23475000 141 157 172 25982.000000
-15.57124996 16.20750046 -0.23375000 195 206 224 26242.000000
-15.57075024 16.20700073 -0.23275000 195 206 224 26175.000000
-15.56925011 16.20524979 -0.23175000 195 206 224 26239.000000
-15.57075024 16.20675087 -0.23074999 195 206 224 26796.000000
-15.57075024 16.20675087 -0.22975001 195 206 224 26378.000000
-15.56999969 16.20599937 -0.22875001 195 206 224 27078.000000
-15.56999969 16.20599937 -0.22775000 195 206 224 26792.000000
-15.56875038 16.20475006 -0.22675000 195 206 224 26582.000000
-15.56900024 16.20499992 -0.22575000 195 206 224 27075.000000
-15.56925011 16.20524979 -0.22475000 231 239 255 27075.000000
-15.56700039 16.20274925 -0.22375000 231 239 255 26928.000000
-15.56799984 16.20375061 -0.22274999 231 239 255 26582.000000
-15.56799984 16.20400047 -0.22175001 231 239 255 24589.000000
-15.56774998 16.20375061 -0.22075000 231 239 255 20157.000000
-15.56649971 16.20224953 -0.21975000 231 239 255 14878.000000
-15.56649971 16.20224953 -0.21875000 231 239 255 10203.000000
-15.56649971 16.20224953 -0.21775000 231 239 255 6192.000000
-15.56649971 16.20249939 -0.21675000 231 239 255 4025.000000
-15.56175041 16.19750023 -0.21574999 231 239 255 2700.000000
-15.56424999 16.20000076 -0.21475001 185 191 213 2132.000000
-15.56350040 16.19899940 -0.21375000 185 191 213 1525.000000
-15.55350018 16.18899918 -0.21275000 185 191 213 1307.000000
-15.56025028 16.19574928 -0.21175000 185 191 213 1185.000000
-15.55049992 16.18574905 -0.21050000 185 191 213 1071.000000
-15.56850052 16.20450020 -0.20975000 185 191 213 1207.000000
-15.57400036 16.21025085 -0.20900001 185 191 213 1032.000000
-15.56649971 16.20224953 -0.20774999 185 191 213 942.000000
-15.56299973 16.19874954 -0.20675001 185 191 213 925.000000
-15.55825043 16.19400024 -0.20575000 125 129 154 928.000000
-15.57024956 16.20624924 -0.20475000 125 129 154 864.000000
-15.55299950 16.18824959 -0.20350000 125 129 154 889.000000
-15.54724979 16.18250084 -0.20250000 125 129 154 964.000000
-15.56075001 16.19650078 -0.20175000 125 129 154 928.000000
-15.56050014 16.19599915 -0.20074999 125 129 154 903.000000
-15.55325031 16.18849945 -0.19949999 125 129 154 910.000000
-15.55175018 16.18700027 -0.19850001 125 129 154 910.000000
-15.55574989 16.19124985 -0.19775000 125 129 154 853.000000
-15.55125046 16.18650055 -0.19650000 118 124 150 875.000000
-15.55825043 16.19375038 -0.19575000 118 124 150 860.000000
-15.56175041 16.19750023 -0.19475000 118 124 150 857.000000
-15.57425022 16.21050072 -0.19374999 118 124 150 932.000000
-15.54899979 16.18400002 -0.19250000 118 124 150 835.000000
-15.56050014 16.19599915 -0.19175000 118 124 150 917.000000
-15.56099987 16.19675064 -0.19075000 118 124 150 896.000000
-15.55475044 16.19000053 -0.18950000 118 124 150 882.000000
-15.55525017 16.19050026 -0.18850000 118 124 150 928.000000
-15.55924988 16.19474983 -0.18775000 118 124 150 828.000000
-15.55949974 16.19499969 -0.18674999 119 126 154 875.000000
-15.55649948 16.19199944 -0.18550000 119 126 154 860.000000
-15.54325008 16.17824936 -0.18449999 119 126 154 957.000000
-15.55574989 16.19124985 -0.18350001 119 126 154 957.000000
-15.55399990 16.18925095 -0.18250000 119 126 154 1010.000000
-15.55550003 16.19099998 -0.18150000 119 126 154 921.000000
-15.55274963 16.18799973 -0.18050000 119 126 154 1085.000000
-15.54850006 16.18350029 -0.17950000 119 126 154 1146.000000
-15.55475044 16.19000053 -0.17850000 119 126 154 1171.000000
-15.55150032 16.18675041 -0.17749999 117 124 152 1307.000000
-15.55074978 16.18574905 -0.17649999 117 124 152 1435.000000
-15.55000019 16.18524933 -0.17550001 117 124 152 1617.000000
-15.55399990 16.18925095 -0.17450000 117 124 152 1867.000000
-15.55150032 16.18675041 -0.17350000 117 124 152 2378.000000
-15.55399990 16.18925095 -0.17250000 117 124 152 2853.000000
-15.54800034 16.18325043 -0.17150000 117 124 152 4178.000000
-15.55224991 16.18750000 -0.17050000 117 124 152 6260.000000
-15.55000019 16.18524933 -0.16949999 117 124 152 9489.000000
-15.54899979 16.18424988 -0.16850001 117 124 152 13460.000000
-15.55099964 16.18625069 -0.16750000 138 146 169 17800.000000
-15.55025005 16.18549919 -0.16650000 138 146 169 21767.000000
-15.55025005 16.18549919 -0.16550000 138 146 169 24146.000000
-15.55025005 16.18549919 -0.16450000 138 146 169 26064.000000
-15.54975033 16.18499947 -0.16350000 138 146 169 27396.000000
-15.54874992 16.18400002 -0.16249999 138 146 169 27103.000000
-15.54874992 16.18375015 -0.16150001 138 146 169 27542.000000
-15.54825020 16.18325043 -0.16050000 138 146 169 27621.000000
-15.54699993 16.18199921 -0.15950000 138 146 169 27175.000000
-15.54825020 16.18325043 -0.15850000 184 192 213 26746.000000
-15.54724979 16.18225098 -0.15750000 184 192 213 26742.000000
-15.54800034 16.18325043 -0.15650000 184 192 213 27392.000000
-15.54924965 16.18449974 -0.15549999 184 192 213 27542.000000
-15.54724979 16.18225098 -0.15449999 184 192 213 28307.000000
-15.54549980 16.18074989 -0.15350001 184 192 213 28621.000000
-15.54650021 16.18149948 -0.15250000 184 192 213 27175.000000
-15.54599953 16.18099976 -0.15150000 184 192 213 23971.000000
-15.54524994 16.18025017 -0.15050000 184 192 213 18917.000000
-15.54574966 16.18074989 -0.14950000 213 225 241 11810.000000
-15.54524994 16.18025017 -0.14850000 213 225 241 6746.000000
-15.53999996 16.17625046 -0.25475001 119 139 148 1378.000000
-15.55475044 16.19149971 -0.25400001 119 139 148 2375.000000
-15.54924965 16.18574905 -0.25299999 119 139 148 3485.000000
-15.54775047 16.18449974 -0.25200000 124 142 154 4360.000000
-15.54825020 16.18474960 -0.25099999 124 142 154 4835.000000
-15.54699993 16.18375015 -0.25000000 124 142 154 4496.000000
-15.54949951 16.18600082 -0.24900000 124 142 154 3957.000000
-15.54850006 16.18499947 -0.24800000 124 142 154 3621.000000
-15.55125046 16.18799973 -0.24699999 124 142 154 3000.000000
-15.55924988 16.19625092 -0.24600001 124 142 154 2996.000000
-15.56674957 16.20425034 -0.24525000 124 142 154 4146.000000
-15.57050037 16.20800018 -0.24425000 124 142 154 6957.000000
-15.57275009 16.21050072 -0.24325000 141 157 172 10960.000000
-15.57250023 16.20999908 -0.24225000 141 157 172 16135.000000
-15.57299995 16.21075058 -0.24124999 141 157 172 20867.000000
-15.57174969 16.20924950 -0.24025001 141 157 172 24021.000000
-15.57250023 16.20999908 -0.23925000 141 157 172 25214.000000
-15.57149982 16.20899963 -0.23825000 141 157 172 26246.000000
-15.57200050 16.20974922 -0.23725000 141 157 172 26457.000000
-15.57225037 16.20974922 -0.23625000 141 157 172 26732.000000
-15.57024956 16.20775032 -0.23500000 141 157 172 26871.000000
-15.57124996 16.20874977 -0.23424999 195 206 224 27232.000000
-15.57075024 16.20849991 -0.23325001 195 206 224 27014.000000
-15.56949997 16.20700073 -0.23225001 195 206 224 26796.000000
-15.56900024 16.20650101 -0.23125000 195 206 224 26585.000000
-15.56999969 16.20750046 -0.23025000 195 206 224 26796.000000
-15.56949997 16.20700073 -0.22925000 195 206 224 26171.000000
-15.56974983 16.20725060 -0.22825000 195 206 224 26242.000000
-15.56850052 16.20574951 -0.22724999 195 206 224 26239.000000
-15.56799984 16.20549965 -0.22624999 195 206 224 26239.000000
-15.56774998 16.20524979 -0.22525001 195 206 224 25710.000000
-15.56725025 16.20475006 -0.22425000 231 239 255 26235.000000
-15.56850052 16.20599937 -0.22325000 231 239 255 23953.000000
-15.56599998 16.20325089 -0.22225000 231 239 255 21985.000000
-15.56750011 16.20499992 -0.22125000 231 239 255 16257.000000
-15.56674957 16.20425034 -0.22025000 231 239 255 10710.000000
-15.56400013 16.20125008 -0.21900000 231 239 255 6542.000000
-15.56449986 16.20174980 -0.21799999 231 239 255 4117.000000
-15.56500053 16.20249939 -0.21699999 231 239 255 2982.000000
-15.56400013 16.20125008 -0.21600001 231 239 255 2192.000000
-15.57024956 16.20775032 -0.21525000 185 191 213 1700.000000
-15.56725025 16.20450020 -0.21400000 185 191 213 1335.000000
-15.55550003 16.19249916 -0.21300000 185 191 213 1221.000000
-15.55350018 16.19025040 -0.21200000 185 191 213 1139.000000
-15.56225014 16.19949913 -0.21100000 185 191 213 1110.000000
-15.56850052 16.20599937 -0.20999999 185 191 213 1010.000000
-15.56025028 16.19750023 -0.20900001 185 191 213 910.000000
-15.56900024 16.20624924 -0.20825000 185 191 213 925.000000
-15.57024956 16.20775032 -0.20725000 185 191 213 917.000000
-15.55500031 16.19199944 -0.20600000 125 129 154 982.000000
-15.56575012 16.20299911 -0.20524999 125 129 154 971.000000
-15.56075001 16.19775009 -0.20400000 125 129 154 971.000000
-15.55700016 16.19400024 -0.20299999 125 129 154 950.000000
-15.56599998 16.20325089 -0.20225000 125 129 154 971.000000
-15.56149960 16.19874954 -0.20125000 125 129 154 860.000000
-15.55574989 16.19274902 -0.20000000 125 129 154 821.000000
-15.54850006 16.18499947 -0.19900000 125 129 154 942.000000
-15.55624962 16.19300079 -0.19800000 125 129 154 875.000000
-15.57075024 16.20825005 -0.19724999 125 129 154 917.000000
-15.55825043 16.19524956 -0.19625001 118 124 150 889.000000
-15.56750011 16.20499992 -0.19525000 118 124 150 896.000000
-15.55900002 16.19599915 -0.19425000 118 124 150 917.000000
-15.56674957 16.20425034 -0.19325000 118 124 150 978.000000
-15.56624985 16.20350075 -0.19225000 118 124 150 917.000000
-15.54724979 16.18400002 -0.19100000 118 124 150 860.000000
-15.55850029 16.19549942 -0.19000000 118 124 150 928.000000
-15.56599998 16.20325089 -0.18925001 118 124 150 867.000000
-15.56500053 16.20224953 -0.18825001 118 124 150 850.000000
-15.56674957 16.20400047 -0.18725000 119 126 154 896.000000
-15.56575012 16.20299911 -0.18600000 119 126 154 857.000000
-15.54724979 16.18375015 -0.18500000 119 126 154 921.000000
-15.54500008 16.18149948 -0.18375000 119 126 154 907.000000
-15.54874992 16.18549919 -0.18300000 119 126 154 942.000000
-15.55224991 16.18899918 -0.18200000 119 126 154 896.000000
-15.55875015 16.19574928 -0.18099999 119 126 154 982.000000
-15.55049992 16.18725014 -0.18000001 119 126 154 1092.000000
-15.55475044 16.19149971 -0.17900001 119 126 154 1050.000000
-15.55375004 16.19050026 -0.17800000 119 126 154 1207.000000
-15.55125046 16.18799973 -0.17700000 117 124 152 1275.000000
-15.55175018 16.18849945 -0.17600000 117 124 152 1267.000000
-15.55749989 16.19449997 -0.17500000 117 124 152 1510.000000
-15.55900002 16.19599915 -0.17399999 117 124 152 1678.000000
-15.55175018 16.18849945 -0.17299999 117 124 152 2150.000000
-15.55125046 16.18799973 -0.17200001 117 124 152 2853.000000
-15.54924965 16.18600082 -0.17100000 117 124 152 3932.000000
-15.55200005 16.18874931 -0.17000000 117 124 152 6435.000000
-15.54874992 16.18524933 -0.16900000 117 124 152 10067.000000
-15.55099964 16.18774986 -0.16800000 138 146 169 14732.000000
-15.54975033 16.18650055 -0.16700000 138 146 169 18617.000000
-15.54749966 16.18400002 -0.16599999 138 146 169 22242.000000
-15.55000019 16.18675041 -0.16500001 138 146 169 24614.000000
-15.54924965 16.18600082 -0.16400000 138 146 169 25739.000000
-15.54924965 16.18574905 -0.16300000 138 146 169 26539.000000
-15.54775047 16.18424988 -0.16200000 138 146 169 26192.000000
-15.54850006 16.18499947 -0.16100000 138 146 169 26682.000000
-15.54650021 16.18325043 -0.15975000 138 146 169 26400.000000
-15.54775047 16.18449974 -0.15875000 184 192 213 26607.000000
-15.54749966 16.18400002 -0.15775000 184 192 213 26678.000000
-15.54450035 16.18099976 -0.15674999 184 192 213 27460.000000
-15.54549980 16.18199921 -0.15575001 184 192 213 27175.000000
-15.54549980 16.18199921 -0.15475000 184 192 213 27246.000000
-15.54524994 16.18174934 -0.15375000 184 192 213 27246.000000
-15.54574966 16.18225098 -0.15275000 184 192 213 25924.000000
-15.54524994 16.18174934 -0.15200000 184 192 213 22432.000000
-15.54625034 16.18275070 -0.15099999 184 192 213 16446.000000
-15.54574966 16.18250084 -0.15000001 184 192 213 10200.000000
-15.54399967 16.18050003 -0.14900000 213 225 241 5742.000000
-15.54650021 16.18449974 -0.25424999 119 139 148 1253.000000
-15.54574966 16.18375015 -0.25325000 119 139 148 2189.000000
-15.54850006 16.18650055 -0.25250000 124 142 154 3242.000000
-15.54675007 16.18474960 -0.25150001 124 142 154 4010.000000
-15.54675007 16.18499947 -0.25049999 124 142 154 4232.000000
-15.54650021 16.18449974 -0.24950001 124 142 154 4239.000000
-15.54825020 16.18650055 -0.24850000 124 142 154 4000.000000
-15.54949951 16.18750000 -0.24750000 124 142 154 3425.000000
-15.55099964 16.18899918 -0.24650000 124 142 154 3175.000000
-15.56075001 16.19924927 -0.24575000 124 142 154 2957.000000
-15.56500053 16.20375061 -0.24474999 124 142 154 3882.000000
-15.56850052 16.20750046 -0.24375001 141 157 172 6146.000000
-15.56999969 16.20899963 -0.24275000 141 157 172 10085.000000
-15.57100010 16.20999908 -0.24175000 141 157 172 14607.000000
-15.57100010 16.20999908 -0.24075000 141 157 172 19142.000000
-15.57024956 16.20924950 -0.23975000 141 157 172 22528.000000
-15.57100010 16.20999908 -0.23875000 141 157 172 24657.000000
-15.57075024 16.20974922 -0.23774999 141 157 172 26382.000000
-15.56875038 16.20775032 -0.23675001 141 157 172 26867.000000
-15.57050037 16.20949936 -0.23575000 141 157 172 27371.000000
-15.56900024 16.20800018 -0.23475000 141 157 172 27010.000000
-15.56949997 16.20849991 -0.23375000 195 206 224 27303.000000
-15.56949997 16.20825005 -0.23275000 195 206 224 26796.000000
-15.56875038 16.20775032 -0.23175000 195 206 224 26653.000000
-15.56925011 16.20800018 -0.23074999 195 206 224 26585.000000
-15.56850052 16.20750046 -0.22975001 195 206 224 26728.000000
-15.56725025 16.20599937 -0.22875001 195 206 224 26514.000000
-15.56799984 16.20675087 -0.22775000 195 206 224 26375.000000
-15.56774998 16.20675087 -0.22675000 195 206 224 26582.000000
-15.56700039 16.20599937 -0.22575000 195 206 224 25710.000000
-15.56525040 16.20400047 -0.22475000 231 239 255 24950.000000
-15.56674957 16.20549965 -0.22375000 231 239 255 23353.000000
-15.56774998 16.20650101 -0.22274999 231 239 255 19921.000000
-15.56500053 16.20375061 -0.22175001 231 239 255 15189.000000
-15.56624985 16.20524979 -0.22075000 231 239 255 10603.000000
-15.56525040 16.20400047 -0.21975000 231 239 255 6664.000000
-15.56649971 16.20524979 -0.21875000 231 239 255 4275.000000
-15.56500053 16.20375061 -0.21775000 231 239 255 2889.000000
-15.56525040 16.20400047 -0.21699999 231 239 255 2239.000000
-15.56124973 16.20000076 -0.21574999 231 239 255 1728.000000
-15.56824970 16.20725060 -0.21500000 185 191 213 1296.000000
-15.56900024 16.20800018 -0.21400000 185 191 213 1214.000000
-15.55774975 16.19625092 -0.21275000 185 191 213 1117.000000
-15.56250000 16.20100021 -0.21175000 185 191 213 1078.000000
-15.57100010 16.20999908 -0.21100000 185 191 213 1000.000000
-15.55249977 16.19075012 -0.20975000 185 191 213 975.000000
-15.56649971 16.20524979 -0.20874999 185 191 213 1025.000000
-15.56674957 16.20549965 -0.20774999 185 191 213 875.000000
-15.55424976 16.19249916 -0.20675001 185 191 213 982.000000
-15.57425022 16.21324921 -0.20600000 125 129 154 1010.000000
-15.55375004 16.19199944 -0.20450000 125 129 154 1025.000000
-15.56250000 16.20125008 -0.20375000 125 129 154 1010.000000
-15.56075001 16.19949913 -0.20275000 125 129 154 882.000000
-15.56799984 16.20700073 -0.20175000 125 129 154 950.000000
-15.56999969 16.20899963 -0.20074999 125 129 154 871.000000
-15.56175041 16.20050049 -0.19975001 125 129 154 903.000000
-15.55700016 16.19549942 -0.19875000 125 129 154 903.000000
-15.54425049 16.18225098 -0.19750001 125 129 154 889.000000
-15.56449986 16.20325089 -0.19675000 118 124 150 882.000000
-15.55924988 16.19799995 -0.19575000 118 124 150 835.000000
-15.56075001 16.19924927 -0.19475000 118 124 150 925.000000
-15.55150032 16.18975067 -0.19350000 118 124 150 842.000000
-15.55700016 16.19549942 -0.19275001 118 124 150 867.000000
-15.55525017 16.19375038 -0.19175000 118 124 150 910.000000
-15.55099964 16.18925095 -0.19050001 118 124 150 914.000000
-15.56225014 16.20100021 -0.18975000 118 124 150 842.000000
-15.56375027 16.20249939 -0.18875000 118 124 150 882.000000
-15.56375027 16.20249939 -0.18775000 118 124 150 828.000000
-15.54399967 16.18199921 -0.18650000 119 126 154 842.000000
-15.55774975 16.19625092 -0.18550000 119 126 154 917.000000
-15.55749989 16.19599915 -0.18449999 119 126 154 842.000000
-15.55550003 16.19375038 -0.18350001 119 126 154 921.000000
-15.54899979 16.18700027 -0.18250000 119 126 154 928.000000
-15.55924988 16.19775009 -0.18150000 119 126 154 950.000000
-15.56324959 16.20199966 -0.18075000 119 126 154 971.000000
-15.54949951 16.18774986 -0.17950000 119 126 154 1057.000000
-15.54599953 16.18400002 -0.17850000 119 126 154 1150.000000
-15.55475044 16.19300079 -0.17749999 117 124 152 1146.000000
-15.54574966 16.18375015 -0.17649999 117 124 152 1125.000000
-15.54349995 16.18124962 -0.17550001 117 124 152 1203.000000
-15.54349995 16.18149948 -0.17450000 117 124 152 1353.000000
-15.54574966 16.18375015 -0.17350000 117 124 152 1453.000000
-15.55000019 16.18799973 -0.17250000 117 124 152 1700.000000
-15.54975033 16.18799973 -0.17150000 117 124 152 2250.000000
-15.54699993 16.18499947 -0.17050000 117 124 152 3085.000000
-15.54825020 16.18625069 -0.16949999 117 124 152 4739.000000
-15.55000019 16.18824959 -0.16850001 117 124 152 7074.000000
-15.54874992 16.18700027 -0.16750000 138 146 169 10371.000000
-15.54775047 16.18574905 -0.16650000 138 146 169 14349.000000
-15.54749966 16.18549919 -0.16550000 138 146 169 18410.000000
-15.54800034 16.18600082 -0.16450000 138 146 169 21717.000000
-15.54800034 16.18600082 -0.16350000 138 146 169 23153.000000
-15.54775047 16.18574905 -0.16249999 138 146 169 24435.000000
-15.54724979 16.18524933 -0.16150001 138 146 169 25539.000000
-15.54675007 16.18474960 -0.16050000 138 146 169 25796.000000
-15.54475021 16.18275070 -0.15950000 138 146 169 25664.000000
-15.54524994 16.18325043 -0.15850000 184 192 213 25996.000000
-15.54549980 16.18350029 -0.15750000 184 192 213 26121.000000
-15.54500008 16.18300056 -0.15650000 184 192 213 26400.000000
-15.54599953 16.18400002 -0.15549999 184 192 213 26192.000000
-15.54349995 16.18149948 -0.15449999 184 192 213 26050.000000
-15.54500008 16.18300056 -0.15350001 184 192 213 25535.000000
-15.54625034 16.18424988 -0.15250000 184 192 213 22639.000000
-15.54349995 16.18124962 -0.15150000 184 192 213 17825.000000
-15.54300022 16.18074989 -0.15050000 184 192 213 11607.000000
-15.54325008 16.18124962 -0.14950000 213 225 241 6114.000000
-15.54300022 16.18225098 -0.25475001 119 139 148 660.000000
-15.54549980 16.18474960 -0.25375000 119 139 148 1178.000000
-15.54574966 16.18524933 -0.25275001 119 139 148 1953.000000
-15.54800034 16.18750000 -0.25200000 124 142 154 2710.000000
-15.54825020 16.18774986 -0.25099999 124 142 154 3350.000000
-15.55150032 16.19099998 -0.25000000 124 142 154 3992.000000
-15.54724979 16.18675041 -0.24875000 124 142 154 4296.000000
-15.54749966 16.18700027 -0.24775000 124 142 154 4175.000000
-15.54675007 16.18600082 -0.24675000 124 142 154 3814.000000
-15.55249977 16.19224930 -0.24600001 124 142 154 3235.000000
-15.55574989 16.19549942 -0.24500000 124 142 154 3125.000000
-15.56250000 16.20249939 -0.24400000 124 142 154 4025.000000
-15.56700039 16.20725060 -0.24325000 141 157 172 6539.000000
-15.56850052 16.20874977 -0.24225000 141 157 172 10167.000000
-15.56900024 16.20949936 -0.24124999 141 157 172 15310.000000
-15.57075024 16.21100044 -0.24025001 141 157 172 20125.000000
-15.57124996 16.21150017 -0.23925000 141 157 172 22889.000000
-15.56925011 16.20974922 -0.23800001 141 157 172 25717.000000
-15.56949997 16.20999908 -0.23700000 141 157 172 26521.000000
-15.56974983 16.21025085 -0.23600000 141 157 172 27232.000000
-15.56799984 16.20849991 -0.23500000 141 157 172 27746.000000
-15.56774998 16.20800018 -0.23400000 195 206 224 26792.000000
-15.56750011 16.20775032 -0.23300000 195 206 224 26792.000000
-15.56799984 16.20825005 -0.23199999 195 206 224 26375.000000
-15.56900024 16.20924950 -0.23100001 195 206 224 26046.000000
-15.56674957 16.20700073 -0.23000000 195 206 224 25974.000000
-15.56774998 16.20800018 -0.22900000 195 206 224 26517.000000
-15.56774998 16.20800018 -0.22825000 195 206 224 26792.000000
-15.56674957 16.20700073 -0.22724999 195 206 224 26514.000000
-15.56624985 16.20650101 -0.22624999 195 206 224 25203.000000
-15.56500053 16.20524979 -0.22525001 195 206 224 23189.000000
-15.56474972 16.20499992 -0.22425000 231 239 255 19728.000000
-15.56674957 16.20700073 -0.22325000 231 239 255 16085.000000
-15.56575012 16.20599937 -0.22225000 231 239 255 11603.000000
-15.56525040 16.20524979 -0.22125000 231 239 255 6967.000000
-15.56375027 16.20400047 -0.22025000 231 239 255 4328.000000
-15.56824970 16.20849991 -0.21924999 231 239 255 2935.000000
-15.56274986 16.20299911 -0.21825001 231 239 255 2246.000000
-15.56474972 16.20475006 -0.21725000 231 239 255 1675.000000
-15.56474972 16.20499992 -0.21625000 231 239 255 1457.000000
-15.57075024 16.21125031 -0.21525000 185 191 213 1200.000000
-15.55974960 16.19974899 -0.21400000 185 191 213 1125.000000
-15.55850029 16.19849968 -0.21300000 185 191 213 1125.000000
-15.55700016 16.19675064 -0.21200000 185 191 213 1017.000000
-15.56274986 16.20274925 -0.21100000 185 191 213 957.000000
-15.56099987 16.20100021 -0.20999999 185 191 213 950.000000
-15.56850052 16.20874977 -0.20925000 185 191 213 942.000000
-15.56149960 16.20149994 -0.20800000 185 191 213 978.000000
-15.56200027 16.20199966 -0.20700000 185 191 213 989.000000
-15.55725002 16.19700050 -0.20600000 125 129 154 989.000000
-15.55924988 16.19924927 -0.20500000 125 129 154 989.000000
-15.54675007 16.18625069 -0.20400000 125 129 154 903.000000
-15.56474972 16.20499992 -0.20325001 125 129 154 903.000000
-15.55150032 16.19124985 -0.20200001 125 129 154 942.000000
-15.55924988 16.19924927 -0.20100001 125 129 154 889.000000
-15.56500053 16.20524979 -0.20025000 125 129 154 925.000000
-15.55900002 16.19874954 -0.19925000 125 129 154 910.000000
-15.56649971 16.20675087 -0.19825000 125 129 154 1003.000000
-15.56949997 16.20974922 -0.19724999 125 129 154 957.000000
-15.55774975 16.19775009 -0.19625001 118 124 150 835.000000
-15.55424976 16.19400024 -0.19499999 118 124 150 928.000000
-15.55249977 16.19224930 -0.19400001 118 124 150 860.000000
-15.54024982 16.17950058 -0.19300000 118 124 150 835.000000
-15.54699993 16.18650055 -0.19200000 118 124 150 914.000000
-15.56725025 16.20750046 -0.19125000 118 124 150 864.000000
-15.54874992 16.18824959 -0.19000000 118 124 150 853.000000
-15.55850029 16.19849968 -0.18900000 118 124 150 867.000000
-15.55675030 16.19650078 -0.18799999 118 124 150 882.000000
-15.54699993 16.18650055 -0.18700001 119 126 154 853.000000
-15.56550026 16.20574951 -0.18600000 119 126 154 821.000000
-15.54399967 16.18350029 -0.18475001 119 126 154 835.000000
-15.55574989 16.19549942 -0.18400000 119 126 154 889.000000
-15.55150032 16.19124985 -0.18300000 119 126 154 896.000000
-15.55825043 16.19824982 -0.18200000 119 126 154 950.000000
-15.55799961 16.19799995 -0.18099999 119 126 154 950.000000
-15.54975033 16.18925095 -0.18000001 119 126 154 971.000000
-15.55099964 16.19075012 -0.17900001 119 126 154 1085.000000
-15.55099964 16.19075012 -0.17800000 119 126 154 1096.000000
-15.55249977 16.19224930 -0.17700000 117 124 152 989.000000
-15.54174995 16.18099976 -0.17575000 117 124 152 1117.000000
-15.54975033 16.18925095 -0.17500000 117 124 152 1139.000000
-15.55725002 16.19700050 -0.17399999 117 124 152 1350.000000
-15.55350018 16.19325066 -0.17299999 117 124 152 1375.000000
-15.54599953 16.18524933 -0.17200001 117 124 152 1757.000000
-15.54524994 16.18449974 -0.17100000 117 124 152 2271.000000
-15.54500008 16.18424988 -0.17000000 117 124 152 3267.000000
-15.54549980 16.18474960 -0.16900000 117 124 152 4739.000000
-15.54675007 16.18600082 -0.16800000 138 146 169 7321.000000
-15.54724979 16.18675041 -0.16700000 138 146 169 9939.000000
-15.54650021 16.18574905 -0.16599999 138 146 169 14114.000000
-15.54749966 16.18675041 -0.16500001 138 146 169 18053.000000
-15.54899979 16.18849945 -0.16400000 138 146 169 21003.000000
-15.54549980 16.18474960 -0.16300000 138 146 169 23582.000000
-15.54625034 16.18574905 -0.16200000 138 146 169 24196.000000
-15.54699993 16.18625069 -0.16100000 138 146 169 25035.000000
-15.54475021 16.18424988 -0.16000000 138 146 169 24971.000000
-15.54450035 16.18400002 -0.15899999 184 192 213 25928.000000
-15.54325008 16.18250084 -0.15800001 184 192 213 25728.000000
-15.54549980 16.18474960 -0.15700001 184 192 213 25996.000000
-15.54450035 16.18375015 -0.15600000 184 192 213 26053.000000
-15.54374981 16.18300056 -0.15475000 184 192 213 25660.000000
-15.54374981 16.18325043 -0.15375000 184 192 213 23971.000000
-15.54399967 16.18350029 -0.15300000 184 192 213 20532.000000
-15.54349995 16.18275070 -0.15200000 184 192 213 15417.000000
-15.54425049 16.18350029 -0.15099999 184 192 213 9614.000000
-15.54300022 16.18225098 -0.15000001 184 192 213 5325.000000
-15.53075027 16.17074966 -0.25325000 119 139 148 921.000000
-15.54599953 16.18675041 -0.25250000 124 142 154 1589.000000
-15.54374981 16.18449974 -0.25125000 124 142 154 2407.000000
-15.54724979 16.18799973 -0.25049999 124 142 154 3371.000000
-15.54450035 16.18524933 -0.24924999 124 142 154 4107.000000
-15.54399967 16.18474960 -0.24824999 124 142 154 4475.000000
-15.54549980 16.18625069 -0.24750000 124 142 154 4328.000000
-15.55000019 16.19099998 -0.24650000 124 142 154 4032.000000
-15.54800034 16.18874931 -0.24550000 124 142 154 3242.000000
-15.55725002 16.19824982 -0.24450000 124 142 154 3135.000000
-15.55974960 16.20100021 -0.24375001 141 157 172 3846.000000
-15.56624985 16.20800018 -0.24275000 141 157 172 5557.000000
-15.56824970 16.20999908 -0.24175000 141 157 172 8592.000000
-15.56875038 16.21050072 -0.24075000 141 157 172 12985.000000
-15.56824970 16.20999908 -0.23975000 141 157 172 17289.000000
-15.56900024 16.21075058 -0.23875000 141 157 172 21757.000000
-15.56875038 16.21050072 -0.23774999 141 157 172 24717.000000
-15.56850052 16.21025085 -0.23675001 141 157 172 26107.000000
-15.56774998 16.20924950 -0.23575000 141 157 172 26242.000000
-15.56774998 16.20949936 -0.23475000 141 157 172 26728.000000
-15.56824970 16.20999908 -0.23375000 195 206 224 26453.000000
-15.56649971 16.20800018 -0.23275000 195 206 224 26042.000000
-15.56624985 16.20775032 -0.23175000 195 206 224 25710.000000
-15.56700039 16.20849991 -0.23074999 195 206 224 25842.000000
-15.56599998 16.20750046 -0.22975001 195 206 224 26103.000000
-15.56599998 16.20750046 -0.22875001 195 206 224 25974.000000
-15.56599998 16.20750046 -0.22775000 195 206 224 25974.000000
-15.56525040 16.20675087 -0.22675000 195 206 224 25385.000000
-15.56700039 16.20849991 -0.22575000 195 206 224 24125.000000
-15.56474972 16.20624924 -0.22475000 231 239 255 20817.000000
-15.56525040 16.20675087 -0.22375000 231 239 255 16367.000000
-15.56500053 16.20650101 -0.22274999 231 239 255 12178.000000
-15.56375027 16.20499992 -0.22175001 231 239 255 8071.000000
-15.56299973 16.20450020 -0.22075000 231 239 255 5225.000000
