//X Y Z R G B Intensity
0.11425000 20.08049965 7.25699997 172 180 191 2407.000000
0.11425000 20.08275032 7.25874996 115 121 133 2000.000000
0.11425000 20.08399963 7.26025009 115 121 133 1850.000000
0.11425000 20.08850098 7.26300001 115 121 133 1750.000000
0.11425000 20.07600021 7.25950003 115 121 133 1532.000000
0.11425000 20.07649994 7.26074982 115 121 133 1378.000000
0.11425000 20.08474922 7.26475000 115 121 133 1350.000000
0.11425000 20.07600021 7.26275015 115 121 133 1342.000000
0.11450000 20.08975029 7.26875019 115 121 133 1325.000000
0.11425000 20.08499908 7.26824999 115 121 133 1228.000000
0.11425000 20.07175064 7.26450014 66 68 81 1064.000000
0.11425000 20.07575035 7.26700020 66 68 81 1064.000000
0.11425000 20.07699966 7.26849985 66 68 81 1146.000000
0.11425000 20.07399940 7.26849985 66 68 81 1100.000000
0.11425000 20.07950020 7.27150011 66 68 81 1114.000000
0.11450000 20.09424973 7.27799988 66 68 81 1050.000000
0.11425000 20.07500076 7.27199984 66 68 81 1064.000000
0.11425000 20.07699966 7.27374983 66 68 81 1057.000000
0.11425000 20.07674980 7.27474976 60 56 70 1089.000000
0.11425000 20.05974960 7.26975012 60 56 70 1075.000000
0.11425000 20.07575035 7.27649975 60 56 70 1064.000000
0.11425000 20.08399963 7.28074980 60 56 70 1025.000000
0.11425000 20.07799911 7.27950001 60 56 70 1017.000000
0.11425000 20.07674980 7.28000021 60 56 70 1010.000000
0.11425000 20.07125092 7.27925014 60 56 70 1157.000000
0.11450000 20.09025002 7.28700018 60 56 70 1089.000000
0.11425000 20.07875061 7.28399992 60 56 70 1032.000000
0.11425000 20.07774925 7.28474998 67 56 72 992.000000
0.11550000 20.11474991 7.19425011 64 55 74 1000.000000
0.11550000 20.11874962 7.19675016 64 55 74 989.000000
0.11550000 20.11624908 7.19675016 64 55 74 910.000000
0.11550000 20.10524940 7.19400024 64 55 74 892.000000
0.11550000 20.12949944 7.20375013 64 55 74 899.000000
0.11550000 20.12375069 7.20275021 64 55 74 950.000000
0.11550000 20.12224960 7.20324993 64 55 74 1139.000000
0.11550000 20.11000061 7.19999981 64 55 74 1228.000000
0.11525000 20.10124969 7.19775009 64 55 74 1310.000000
0.11550000 20.10675049 7.20074987 57 49 70 1235.000000
0.11550000 20.10375023 7.20100021 57 49 70 1239.000000
0.11550000 20.10750008 7.20324993 57 49 70 1246.000000
0.11550000 20.10874939 7.20475006 57 49 70 1228.000000
0.11550000 20.10325050 7.20400000 57 49 70 1285.000000
0.11550000 20.11375046 7.20874977 57 49 70 1375.000000
0.11550000 20.10650063 7.20725012 57 49 70 1303.000000
0.11525000 20.09950066 7.20574999 57 49 70 1310.000000
0.11550000 20.10275078 7.20800018 57 49 70 1350.000000
0.11550000 20.10224915 7.20874977 59 54 76 1435.000000
0.11550000 20.10700035 7.21175003 59 54 76 1350.000000
0.11550000 20.10874939 7.21325016 59 54 76 1496.000000
0.11550000 20.10400009 7.21274996 59 54 76 1703.000000
0.11550000 20.10424995 7.21400023 59 54 76 1767.000000
0.11550000 20.10750008 7.21600008 59 54 76 1882.000000
0.11525000 20.09950066 7.21425009 59 54 76 2196.000000
0.11550000 20.10325050 7.21675014 59 54 76 2628.000000
0.11525000 20.10025024 7.21675014 59 54 76 3471.000000
0.11525000 20.10149956 7.21824980 73 68 91 4875.000000
0.11525000 20.10050011 7.21899986 73 68 91 7028.000000
0.11550000 20.10224915 7.22049999 73 68 91 10414.000000
0.11525000 20.10124969 7.22125006 73 68 91 14607.000000
0.11525000 20.10025024 7.22200012 73 68 91 19457.000000
0.11550000 20.10325050 7.22424984 73 68 91 24753.000000
0.11525000 20.10149956 7.22475004 73 68 91 28696.000000
0.11525000 20.10099983 7.22550011 73 68 91 30828.000000
0.11525000 20.09849930 7.22574997 73 68 91 32389.000000
0.11525000 20.09675026 7.22599983 110 106 131 34121.000000
0.11525000 20.09849930 7.22774982 110 106 131 35521.000000
0.11525000 20.09975052 7.22924995 110 106 131 37625.000000
0.11525000 20.09724998 7.22949982 110 106 131 38842.000000
0.11525000 20.09675026 7.23024988 110 106 131 38842.000000
0.11525000 20.09774971 7.23175001 110 106 131 38685.000000
0.11525000 20.09600067 7.23199987 110 106 131 38682.000000
0.11525000 20.09600067 7.23325014 110 106 131 37917.000000
0.11525000 20.09499931 7.23374987 110 106 131 36610.000000
0.11525000 20.09550095 7.23500013 153 153 177 36060.000000
0.11525000 20.09499931 7.23600006 153 153 177 36192.000000
0.11525000 20.09399986 7.23675013 153 153 177 37035.000000
0.11525000 20.09325027 7.23750019 153 153 177 36057.000000
0.11525000 20.09375000 7.23874998 153 153 177 36471.000000
0.11525000 20.09300041 7.23950005 153 153 177 36332.000000
0.11525000 20.09375000 7.24100018 153 153 177 35921.000000
0.11525000 20.09350014 7.24174976 153 153 177 35921.000000
0.11525000 20.09250069 7.24249983 190 197 213 35000.000000
0.11525000 20.09199905 7.24349976 190 197 213 36610.000000
0.11525000 20.09149933 7.24450016 190 197 213 38842.000000
0.11525000 20.09074974 7.24525023 190 197 213 39646.000000
0.11525000 20.09199905 7.24674988 190 197 213 38375.000000
0.11525000 20.08850098 7.24650002 190 197 213 37321.000000
0.11525000 20.08900070 7.24774981 190 197 213 35650.000000
0.11525000 20.08749962 7.24825001 190 197 213 34867.000000
0.11525000 20.08925056 7.25000000 190 197 213 34003.000000
0.11525000 20.08975029 7.25124979 172 180 191 33060.000000
0.11525000 20.08850098 7.25174999 172 180 191 28949.000000
0.11525000 20.08575058 7.25174999 172 180 191 22267.000000
0.11525000 20.08474922 7.25250006 172 180 191 14803.000000
0.11525000 20.08474922 7.25349998 172 180 191 8707.000000
0.11525000 20.08550072 7.25475025 172 180 191 5500.000000
0.11525000 20.08074951 7.25425005 172 180 191 3817.000000
0.11525000 20.08699989 7.25750017 172 180 191 2903.000000
0.11525000 20.08300018 7.25724983 172 180 191 2278.000000
0.11525000 20.09449959 7.26249981 115 121 133 1889.000000
0.11525000 20.08799934 7.26100016 115 121 133 1774.000000
0.11525000 20.08424950 7.26074982 115 121 133 1632.000000
0.11525000 20.07674980 7.25925016 115 121 133 1360.000000
0.11525000 20.08024979 7.26149988 115 121 133 1375.000000
0.11525000 20.08875084 7.26574993 115 121 133 1221.000000
0.11525000 20.06749916 7.25899982 115 121 133 1239.000000
0.11525000 20.08449936 7.26625013 115 121 133 1328.000000
0.11525000 20.06500053 7.26025009 115 121 133 1257.000000
0.11525000 20.08499908 7.26849985 66 68 81 1228.000000
0.11525000 20.09225082 7.27225018 66 68 81 1071.000000
0.11525000 20.08550072 7.27099991 66 68 81 1239.000000
0.11525000 20.09074974 7.27400017 66 68 81 1189.000000
0.11525000 20.06599998 7.26599979 66 68 81 1150.000000
0.11525000 20.07850075 7.27174997 66 68 81 1235.000000
0.11525000 20.07424927 7.27099991 66 68 81 1125.000000
0.11525000 20.08074951 7.27449989 66 68 81 1146.000000
0.11525000 20.08124924 7.27575016 66 68 81 1075.000000
0.11525000 20.08699989 7.27874994 60 56 70 1046.000000
0.11525000 20.07900047 7.27699995 60 56 70 1067.000000
0.11525000 20.08474922 7.28025007 60 56 70 1057.000000
0.11525000 20.06999969 7.27575016 60 56 70 1032.000000
0.11525000 20.07799911 7.27974987 60 56 70 1139.000000
0.11525000 20.06324959 7.27549982 60 56 70 1092.000000
0.11525000 20.07525063 7.28100014 60 56 70 1114.000000
0.11525000 20.07850075 7.28324986 60 56 70 1089.000000
0.11525000 20.08074951 7.28499985 60 56 70 1071.000000
0.11525000 20.07525063 7.28424978 67 56 72 1132.000000
0.11525000 20.08250046 7.28800011 67 56 72 1128.000000
0.11650000 20.11599922 7.19425011 74 63 80 1050.000000
0.11625000 20.10625076 7.19175005 64 55 74 960.000000
0.11650000 20.12475014 7.19950008 64 55 74 917.000000
0.11625000 20.10675049 7.19400024 64 55 74 899.000000
0.11650000 20.10874939 7.19575024 64 55 74 885.000000
0.11650000 20.11549950 7.19925022 64 55 74 1039.000000
0.11625000 20.10600090 7.19700003 64 55 74 1010.000000
0.11650000 20.11350060 7.20074987 64 55 74 1128.000000
0.11625000 20.09325027 7.19449997 64 55 74 1139.000000
0.11650000 20.11450005 7.20324993 57 49 70 1075.000000
0.11625000 20.10474968 7.20074987 57 49 70 1132.000000
0.11650000 20.11100006 7.20400000 57 49 70 1042.000000
0.11625000 20.10199928 7.20200014 57 49 70 1182.000000
0.11625000 20.09650040 7.20100021 57 49 70 1203.000000
0.11650000 20.11350060 7.20825005 57 49 70 1153.000000
0.11650000 20.11325073 7.20924997 57 49 70 1260.000000
0.11625000 20.10625076 7.20774984 57 49 70 1296.000000
0.11625000 20.10449982 7.20825005 57 49 70 1260.000000
0.11650000 20.10975075 7.21099997 59 54 76 1235.000000
0.11650000 20.11300087 7.21350002 59 54 76 1285.000000
0.11625000 20.10350037 7.21099997 59 54 76 1335.000000
0.11625000 20.10799980 7.21374989 59 54 76 1442.000000
0.11625000 20.09675026 7.21075010 59 54 76 1492.000000
0.11625000 20.10799980 7.21575022 59 54 76 1596.000000
0.11625000 20.09600067 7.21250010 59 54 76 1739.000000
0.11625000 20.10824966 7.21799994 59 54 76 1946.000000
0.11625000 20.09774971 7.21525002 59 54 76 2250.000000
0.11625000 20.10199928 7.21799994 73 68 91 3100.000000
0.11625000 20.10350037 7.21950006 73 68 91 4042.000000
0.11625000 20.10050011 7.21950006 73 68 91 5710.000000
0.11625000 20.10025024 7.22049999 73 68 91 8328.000000
0.11625000 20.10275078 7.22249985 73 68 91 12096.000000
0.11625000 20.10124969 7.22300005 73 68 91 17692.000000
0.11625000 20.10025024 7.22375011 73 68 91 22639.000000
0.11625000 20.09925079 7.22424984 73 68 91 26985.000000
0.11625000 20.09975052 7.22550011 73 68 91 30242.000000
0.11625000 20.09849930 7.22625017 110 106 131 31850.000000
0.11625000 20.09950066 7.22774982 110 106 131 34375.000000
0.11625000 20.09774971 7.22800016 110 106 131 35128.000000
0.11625000 20.09774971 7.22924995 110 106 131 37035.000000
0.11625000 20.09799957 7.23024988 110 106 131 37767.000000
0.11625000 20.09700012 7.23099995 110 106 131 38375.000000
0.11625000 20.09625053 7.23175001 110 106 131 38221.000000
0.11625000 20.09600067 7.23274994 110 106 131 37617.000000
0.11625000 20.09550095 7.23350000 110 106 131 37328.000000
0.11625000 20.09550095 7.23449993 153 153 177 36332.000000
0.11625000 20.09474945 7.23549986 153 153 177 36332.000000
0.11625000 20.09350014 7.23600006 153 153 177 37032.000000
0.11625000 20.09524918 7.23775005 153 153 177 37767.000000
0.11625000 20.09474945 7.23874998 153 153 177 37182.000000
0.11625000 20.09225082 7.23874998 153 153 177 36746.000000
0.11625000 20.09025002 7.23925018 153 153 177 35253.000000
0.11625000 20.09300041 7.24125004 153 153 177 34875.000000
0.11625000 20.09325027 7.24224997 153 153 177 34621.000000
0.11625000 20.09250069 7.24324989 190 197 213 35521.000000
0.11625000 20.09000015 7.24324989 190 197 213 37178.000000
0.11625000 20.09074974 7.24475002 190 197 213 38217.000000
0.11625000 20.08925056 7.24525023 190 197 213 38367.000000
0.11625000 20.08925056 7.24625015 190 197 213 37467.000000
0.11625000 20.08850098 7.24700022 190 197 213 36053.000000
0.11625000 20.08774948 7.24774981 190 197 213 35514.000000
0.11625000 20.08875084 7.24924994 190 197 213 34746.000000
0.11625000 20.08749962 7.25000000 190 197 213 31635.000000
0.11625000 20.08799934 7.25099993 172 180 191 26985.000000
0.11625000 20.08749962 7.25199986 172 180 191 19617.000000
0.11625000 20.08650017 7.25274992 172 180 191 12485.000000
0.11625000 20.08675003 7.25374985 172 180 191 6932.000000
0.11625000 20.08449936 7.25400019 172 180 191 4714.000000
0.11625000 20.08774948 7.25624990 172 180 191 3435.000000
0.11625000 20.07850075 7.25425005 172 180 191 2514.000000
0.11625000 20.09225082 7.26000023 172 180 191 1957.000000
0.11625000 20.08399963 7.25825024 172 180 191 1817.000000
0.11625000 20.08575058 7.26000023 115 121 133 1660.000000
0.11625000 20.09350014 7.26375008 115 121 133 1578.000000
0.11625000 20.08225060 7.26074982 115 121 133 1385.000000
0.11625000 20.07999992 7.26100016 115 121 133 1303.000000
0.11625000 20.07900047 7.26175022 115 121 133 1321.000000
0.11625000 20.08499908 7.26499987 115 121 133 1296.000000
0.11625000 20.08724976 7.26674986 115 121 133 1196.000000
0.11625000 20.07525063 7.26350021 115 121 133 1296.000000
0.11625000 20.08525085 7.26824999 115 121 133 1253.000000
0.11625000 20.08650017 7.26975012 66 68 81 1107.000000
0.11625000 20.08374977 7.26975012 66 68 81 1178.000000
0.11625000 20.08300018 7.27050018 66 68 81 1278.000000
0.11625000 20.08099937 7.27099991 66 68 81 1328.000000
0.11625000 20.08374977 7.27299976 66 68 81 1296.000000
0.11625000 20.08325005 7.27374983 66 68 81 1146.000000
0.11625000 20.07950020 7.27349997 66 68 81 1121.000000
0.11625000 20.07875061 7.27425003 66 68 81 1146.000000
0.11625000 20.06624985 7.27075005 66 68 81 1157.000000
0.11625000 20.06875038 7.27299976 60 56 70 1114.000000
0.11625000 20.08225060 7.27874994 60 56 70 1042.000000
0.11625000 20.07275009 7.27649975 60 56 70 1057.000000
0.11625000 20.07399940 7.27799988 60 56 70 1057.000000
0.11625000 20.08275032 7.28224993 60 56 70 1139.000000
0.11625000 20.07175064 7.27925014 60 56 70 1100.000000
0.11625000 20.07525063 7.28175020 60 56 70 1100.000000
0.11625000 20.07150078 7.28125000 60 56 70 1064.000000
0.11625000 20.07349968 7.28324986 67 56 72 1089.000000
0.11600000 20.05924988 7.27899981 67 56 72 1050.000000
0.11725000 20.10824966 7.19075012 74 63 80 1010.000000
0.11750000 20.11874962 7.19549990 64 55 74 992.000000
0.11725000 20.10725021 7.19250011 64 55 74 957.000000
0.11750000 20.12299919 7.19925022 64 55 74 989.000000
0.11725000 20.09625053 7.19075012 64 55 74 967.000000
0.11725000 20.11599922 7.19899988 64 55 74 1039.000000
0.11750000 20.12500000 7.20324993 64 55 74 1071.000000
0.11750000 20.12025070 7.20249987 64 55 74 1082.000000
0.11725000 20.10899925 7.19950008 64 55 74 1100.000000
0.11750000 20.12000084 7.20450020 64 55 74 1025.000000
0.11725000 20.11450005 7.20375013 57 49 70 1017.000000
0.11725000 20.10524940 7.20149994 57 49 70 1042.000000
0.11725000 20.10700035 7.20324993 57 49 70 1100.000000
0.11725000 20.10250092 7.20275021 57 49 70 1064.000000
0.11725000 20.09424973 7.20074987 57 49 70 1125.000000
0.11725000 20.11199951 7.20825005 57 49 70 1139.000000
0.11725000 20.10625076 7.20699978 57 49 70 1260.000000
0.11725000 20.09700012 7.20475006 57 49 70 1164.000000
0.11725000 20.10124969 7.20749998 57 49 70 1171.000000
0.11725000 20.10625076 7.21024990 59 54 76 1107.000000
0.11725000 20.10099983 7.20949984 59 54 76 1182.000000
0.11725000 20.10574913 7.21224976 59 54 76 1235.000000
0.11725000 20.10025024 7.21124983 59 54 76 1353.000000
0.11725000 20.11700058 7.21824980 59 54 76 1360.000000
0.11725000 20.09049988 7.21000004 59 54 76 1542.000000
0.11725000 20.11199951 7.21875000 59 54 76 1671.000000
0.11725000 20.10499954 7.21724987 59 54 76 1971.000000
0.11725000 20.10350037 7.21775007 59 54 76 2314.000000
0.11725000 20.10375023 7.21899986 73 68 91 2896.000000
0.11725000 20.10400009 7.22025013 73 68 91 3796.000000
0.11725000 20.10224915 7.22049999 73 68 91 5217.000000
0.11725000 20.10199928 7.22149992 73 68 91 7174.000000
0.11725000 20.10099983 7.22224998 73 68 91 11107.000000
0.11725000 20.10000038 7.22300005 73 68 91 16057.000000
0.11725000 20.10000038 7.22399998 73 68 91 20953.000000
0.11725000 20.09950066 7.22499990 73 68 91 25274.000000
0.11725000 20.10050011 7.22625017 73 68 91 28785.000000
0.11725000 20.10050011 7.22749996 110 106 131 31335.000000
0.11725000 20.09975052 7.22825003 110 106 131 32835.000000
0.11725000 20.09824944 7.22875023 110 106 131 34496.000000
0.11725000 20.09874916 7.23000002 110 106 131 35264.000000
0.11725000 20.09774971 7.23075008 110 106 131 36060.000000
0.11725000 20.09625053 7.23124981 110 106 131 36889.000000
0.11725000 20.09724998 7.23250008 110 106 131 37185.000000
0.11725000 20.09575081 7.23299980 110 106 131 36060.000000
0.11725000 20.09700012 7.23449993 110 106 131 36335.000000
0.11725000 20.09375000 7.23449993 153 153 177 35782.000000
0.11725000 20.09499931 7.23600006 153 153 177 36192.000000
0.11725000 20.09300041 7.23624992 153 153 177 37032.000000
0.11725000 20.09474945 7.23799992 153 153 177 37182.000000
0.11725000 20.09275055 7.23824978 153 153 177 36189.000000
0.11725000 20.09300041 7.23950005 153 153 177 36057.000000
0.11725000 20.09275055 7.24049997 153 153 177 35000.000000
0.11725000 20.09174919 7.24125004 153 153 177 34242.000000
0.11725000 20.09325027 7.24275017 153 153 177 35003.000000
0.11725000 20.09049988 7.24275017 190 197 213 35650.000000
0.11725000 20.09099960 7.24424982 190 197 213 36610.000000
0.11725000 20.09074974 7.24499989 190 197 213 37617.000000
0.11725000 20.09099960 7.24625015 190 197 213 37182.000000
0.11725000 20.09025002 7.24700022 190 197 213 36192.000000
0.11725000 20.09124947 7.24849987 190 197 213 35128.000000
0.11725000 20.09174919 7.24975014 190 197 213 33646.000000
0.11725000 20.08950043 7.25000000 190 197 213 30239.000000
0.11725000 20.08875084 7.25075006 172 180 191 24375.000000
0.11725000 20.08799934 7.25150013 172 180 191 17785.000000
0.11725000 20.08675003 7.25225019 172 180 191 11675.000000
0.11725000 20.08724976 7.25349998 172 180 191 7160.000000
0.11725000 20.08699989 7.25425005 172 180 191 4567.000000
0.11725000 20.08399963 7.25425005 172 180 191 3407.000000
0.11725000 20.08824921 7.25699997 172 180 191 2553.000000
0.11725000 20.08799934 7.25799990 172 180 191 2021.000000
0.11725000 20.08625031 7.25825024 172 180 191 1742.000000
0.11725000 20.08575058 7.25925016 115 121 133 1632.000000
0.11725000 20.08875084 7.26125002 115 121 133 1482.000000
0.11725000 20.09399986 7.26424980 115 121 133 1564.000000
0.11725000 20.08550072 7.26224995 115 121 133 1435.000000
0.11725000 20.08175087 7.26200008 115 121 133 1285.000000
0.11700000 20.07724953 7.26149988 115 121 133 1253.000000
0.11725000 20.08099937 7.26399994 115 121 133 1246.000000
0.11725000 20.08225060 7.26550007 115 121 133 1182.000000
0.11725000 20.09099960 7.26975012 115 121 133 1185.000000
0.11700000 20.07074928 7.26350021 66 68 81 1125.000000
0.11725000 20.09300041 7.27250004 66 68 81 1121.000000
0.11725000 20.08850098 7.27199984 66 68 81 1164.000000
0.11700000 20.07600021 7.26849985 66 68 81 1289.000000
0.11725000 20.08124924 7.27150011 66 68 81 1328.000000
0.11725000 20.08074951 7.27225018 66 68 81 1214.000000
0.11725000 20.09275055 7.27775002 66 68 81 1164.000000
0.11725000 20.08275032 7.27524996 66 68 81 1189.000000
0.11725000 20.09149933 7.27950001 66 68 81 1246.000000
0.11700000 20.06749916 7.27174997 60 56 70 1196.000000
0.11725000 20.07975006 7.27724981 60 56 70 1075.000000
0.11725000 20.07950020 7.27825022 60 56 70 1089.000000
0.11700000 20.06200027 7.27299976 60 56 70 1107.000000
0.11725000 20.08099937 7.28100014 60 56 70 1196.000000
0.11700000 20.07625008 7.28025007 60 56 70 1171.000000
0.11725000 20.07900047 7.28224993 60 56 70 1214.000000
0.11700000 20.06749916 7.27925014 60 56 70 1114.000000
0.11700000 20.07200050 7.28200006 60 56 70 1139.000000
0.11700000 20.06949997 7.28200006 67 56 72 1121.000000
0.11725000 20.08399963 7.28849983 67 56 72 1046.000000
0.11825000 20.12025070 7.19449997 74 63 80 1178.000000
0.11825000 20.11975098 7.19549990 64 55 74 1128.000000
0.11825000 20.10375023 7.19075012 64 55 74 1100.000000
0.11825000 20.10600090 7.19274998 64 55 74 1075.000000
0.11825000 20.11025047 7.19525003 64 55 74 1096.000000
0.11825000 20.10524940 7.19449997 64 55 74 1089.000000
0.11825000 20.09700012 7.19274998 64 55 74 1125.000000
0.11825000 20.11824989 7.20149994 64 55 74 1139.000000
0.11825000 20.12100029 7.20349979 64 55 74 1107.000000
0.11825000 20.09474945 7.19500017 64 55 74 1089.000000
0.11825000 20.12425041 7.20674992 57 49 70 1135.000000
0.11825000 20.10950089 7.20249987 57 49 70 1075.000000
0.11825000 20.11025047 7.20375013 57 49 70 1128.000000
0.11825000 20.09799957 7.20074987 57 49 70 1050.000000
0.11825000 20.10675049 7.20475006 57 49 70 1100.000000
0.11825000 20.09899902 7.20300007 57 49 70 1032.000000
0.11825000 20.10774994 7.20725012 57 49 70 1075.000000
0.11825000 20.11924934 7.21250010 57 49 70 1039.000000
0.11825000 20.10725021 7.20924997 57 49 70 1157.000000
0.11825000 20.09399986 7.20550013 59 54 76 1025.000000
0.11825000 20.10600090 7.21075010 59 54 76 1146.000000
0.11825000 20.09524918 7.20800018 59 54 76 1207.000000
0.11825000 20.10700035 7.21325016 59 54 76 1328.000000
0.11825000 20.10275078 7.21299982 59 54 76 1400.000000
0.11825000 20.10725021 7.21549988 59 54 76 1464.000000
0.11825000 20.10424995 7.21549988 59 54 76 1539.000000
0.11800000 20.09099960 7.21175003 59 54 76 1682.000000
0.11825000 20.09899902 7.21575022 59 54 76 1842.000000
0.11825000 20.10099983 7.21750021 73 68 91 2167.000000
0.11825000 20.10950089 7.22174978 73 68 91 2485.000000
0.11825000 20.10474968 7.22100019 73 68 91 3200.000000
0.11825000 20.10250092 7.22125006 73 68 91 4228.000000
0.11825000 20.10224915 7.22224998 73 68 91 5728.000000
0.11825000 20.10099983 7.22275019 73 68 91 8432.000000
0.11825000 20.09975052 7.22349977 73 68 91 12203.000000
0.11825000 20.09975052 7.22450018 73 68 91 17003.000000
0.11825000 20.10124969 7.22625017 73 68 91 21092.000000
0.11825000 20.09950066 7.22674990 110 106 131 25821.000000
0.11825000 20.09925079 7.22749996 110 106 131 29221.000000
0.11825000 20.09824944 7.22825003 110 106 131 32067.000000
0.11825000 20.09899902 7.22949982 110 106 131 34250.000000
0.11825000 20.09550095 7.22949982 110 106 131 35125.000000
0.11825000 20.09700012 7.23099995 110 106 131 35389.000000
0.11825000 20.09650040 7.23199987 110 106 131 35260.000000
0.11825000 20.09575081 7.23250008 110 106 131 35260.000000
0.11825000 20.09499931 7.23350000 110 106 131 35653.000000
0.11825000 20.09474945 7.23449993 153 153 177 35917.000000
0.11825000 20.09375000 7.23500013 153 153 177 36057.000000
0.11825000 20.09499931 7.23675013 153 153 177 35653.000000
0.11825000 20.09375000 7.23724985 153 153 177 35385.000000
0.11825000 20.09399986 7.23824978 153 153 177 35128.000000
0.11825000 20.09375000 7.23925018 153 153 177 34875.000000
0.11825000 20.09325027 7.24025011 153 153 177 34621.000000
0.11800000 20.09199905 7.24074984 153 153 177 34125.000000
0.11825000 20.09325027 7.24224997 153 153 177 34375.000000
0.11800000 20.09099960 7.24275017 190 197 213 34242.000000
0.11800000 20.09074974 7.24349976 190 197 213 35000.000000
0.11800000 20.08950043 7.24424982 190 197 213 36885.000000
0.11800000 20.09074974 7.24574995 190 197 213 36750.000000
0.11800000 20.09074974 7.24674988 190 197 213 36192.000000
0.11800000 20.08975029 7.24749994 190 197 213 35000.000000
0.11800000 20.08950043 7.24849987 190 197 213 31850.000000
0.11800000 20.09025002 7.24975014 190 197 213 27532.000000
0.11800000 20.08799934 7.25000000 190 197 213 21375.000000
0.11800000 20.08975029 7.25174999 172 180 191 14650.000000
0.11800000 20.09000015 7.25299978 172 180 191 9392.000000
0.11800000 20.08449936 7.25199986 172 180 191 5703.000000
0.11800000 20.08575058 7.25349998 172 180 191 4110.000000
0.11800000 20.08675003 7.25500011 172 180 191 3103.000000
0.11800000 20.08774948 7.25650024 172 180 191 2178.000000
0.11800000 20.08099937 7.25500011 172 180 191 1796.000000
0.11800000 20.08724976 7.25825024 172 180 191 1628.000000
0.11800000 20.08024979 7.25675011 172 180 191 1600.000000
0.11800000 20.07925034 7.25750017 115 121 133 1475.000000
0.11825000 20.09300041 7.26375008 115 121 133 1450.000000
0.11800000 20.08900070 7.26324987 115 121 133 1496.000000
0.11800000 20.08724976 7.26375008 115 121 133 1328.000000
0.11800000 20.07475090 7.26025009 115 121 133 1321.000000
0.11800000 20.08474922 7.26499987 115 121 133 1182.000000
0.11825000 20.09300041 7.26875019 115 121 133 1210.000000
0.11800000 20.09049988 7.26900005 115 121 133 1132.000000
0.11800000 20.08550072 7.26824999 115 121 133 1139.000000
0.11800000 20.06800079 7.26300001 66 68 81 1114.000000
0.11800000 20.06999969 7.26475000 66 68 81 1164.000000
0.11800000 20.08175087 7.26999998 66 68 81 1253.000000
0.11800000 20.07900047 7.27024984 66 68 81 1292.000000
0.11800000 20.07424927 7.26949978 66 68 81 1317.000000
0.11800000 20.07875061 7.27225018 66 68 81 1253.000000
0.11800000 20.08850098 7.27675009 66 68 81 1292.000000
0.11800000 20.06925011 7.27099991 66 68 81 1253.000000
0.11800000 20.06475067 7.27024984 66 68 81 1196.000000
0.11800000 20.07850075 7.27649975 60 56 70 1042.000000
0.11800000 20.07125092 7.27500010 60 56 70 1164.000000
0.11800000 20.07049942 7.27575016 60 56 70 1150.000000
0.11800000 20.08799934 7.28299999 60 56 70 1189.000000
0.11800000 20.08625031 7.28350019 60 56 70 1185.000000
0.11800000 20.07975006 7.28224993 60 56 70 1214.000000
0.11800000 20.06674957 7.27850008 60 56 70 1214.000000
0.11800000 20.06974983 7.28074980 60 56 70 1150.000000
0.11800000 20.07674980 7.28424978 67 56 72 1132.000000
0.11800000 20.07049942 7.28324986 67 56 72 1150.000000
0.11800000 20.07674980 7.28649998 67 56 72 1057.000000
0.11925000 20.11824989 7.19325018 74 63 80 1121.000000
0.11925000 20.10350037 7.18924999 74 63 80 1146.000000
0.11925000 20.11050034 7.19274998 64 55 74 1157.000000
0.11925000 20.10224915 7.19075012 64 55 74 1178.000000
0.11925000 20.10975075 7.19449997 64 55 74 1107.000000
0.11900000 20.09300041 7.18949986 64 55 74 1142.000000
0.11925000 20.11124992 7.19724989 64 55 74 1189.000000
0.11925000 20.11949921 7.20125008 64 55 74 1178.000000
0.11925000 20.10924911 7.19850016 64 55 74 1210.000000
0.11925000 20.12199974 7.20424986 64 55 74 1235.000000
0.11925000 20.11199951 7.20174980 64 55 74 1189.000000
0.11925000 20.11800003 7.20499992 57 49 70 1260.000000
0.11925000 20.11375046 7.20450020 57 49 70 1121.000000
0.11925000 20.10350037 7.20200014 57 49 70 1146.000000
0.11925000 20.10325050 7.20300007 57 49 70 1203.000000
0.11925000 20.10474968 7.20450020 57 49 70 1146.000000
0.11900000 20.09375000 7.20149994 57 49 70 1089.000000
0.11900000 20.08925056 7.20100021 57 49 70 1010.000000
0.11925000 20.10300064 7.20699978 57 49 70 1089.000000
0.11925000 20.10950089 7.21049976 57 49 70 1107.000000
0.11900000 20.09300041 7.20550013 59 54 76 1100.000000
0.11925000 20.11000061 7.21274996 59 54 76 1017.000000
0.11925000 20.09925079 7.20975018 59 54 76 1171.000000
0.11900000 20.09250069 7.20849991 59 54 76 1260.000000
0.11900000 20.09149933 7.20924997 59 54 76 1289.000000
0.11925000 20.10250092 7.21425009 59 54 76 1400.000000
0.11925000 20.10950089 7.21775007 59 54 76 1557.000000
0.11925000 20.10700035 7.21799994 59 54 76 1653.000000
0.11925000 20.10725021 7.21925020 59 54 76 1889.000000
0.11925000 20.11075020 7.22149992 73 68 91 2014.000000
0.11925000 20.10025024 7.21875000 73 68 91 2350.000000
0.11925000 20.10174942 7.22049999 73 68 91 2767.000000
0.11900000 20.09824944 7.21999979 73 68 91 3624.000000
0.11925000 20.10250092 7.22275019 73 68 91 4885.000000
0.11925000 20.09849930 7.22249985 73 68 91 6960.000000
0.11925000 20.10124969 7.22450018 73 68 91 10471.000000
0.11925000 20.09899902 7.22475004 73 68 91 14028.000000
0.11925000 20.09899902 7.22574997 73 68 91 18810.000000
0.11900000 20.09824944 7.22674990 110 106 131 24128.000000
0.11925000 20.10025024 7.22849989 110 106 131 29225.000000
0.11900000 20.09749985 7.22849989 110 106 131 33175.000000
0.11900000 20.09849930 7.23000002 110 106 131 34250.000000
0.11900000 20.09824944 7.23075008 110 106 131 34128.000000
0.11900000 20.09749985 7.23150015 110 106 131 34375.000000
0.11900000 20.09700012 7.23250008 110 106 131 34875.000000
0.11900000 20.09399986 7.23250008 110 106 131 34996.000000
0.11900000 20.09774971 7.23474979 110 106 131 34500.000000
0.11900000 20.09375000 7.23449993 153 153 177 34996.000000
0.11900000 20.09449959 7.23575020 153 153 177 34875.000000
0.11900000 20.09524918 7.23699999 153 153 177 34875.000000
0.11900000 20.09375000 7.23775005 153 153 177 34492.000000
0.11900000 20.09199905 7.23799992 153 153 177 34617.000000
0.11900000 20.09350014 7.23974991 153 153 177 34371.000000
0.11900000 20.09300041 7.24049997 153 153 177 34007.000000
0.11900000 20.09099960 7.24100018 153 153 177 33760.000000
0.11900000 20.09049988 7.24174976 153 153 177 34242.000000
0.11900000 20.09074974 7.24300003 190 197 213 34742.000000
0.11900000 20.09199905 7.24450016 190 197 213 36889.000000
0.11900000 20.08975029 7.24475002 190 197 213 38217.000000
0.11900000 20.09149933 7.24650002 190 197 213 36471.000000
0.11900000 20.09000015 7.24700022 190 197 213 33764.000000
0.11900000 20.09074974 7.24825001 190 197 213 30628.000000
0.11900000 20.08925056 7.24875021 190 197 213 24942.000000
0.11900000 20.08824921 7.24949980 190 197 213 18878.000000
0.11900000 20.08925056 7.25099993 172 180 191 12925.000000
0.11900000 20.08749962 7.25150013 172 180 191 8100.000000
0.11900000 20.08474922 7.25150013 172 180 191 5328.000000
0.11900000 20.08424950 7.25225019 172 180 191 3707.000000
0.11900000 20.08575058 7.25400019 172 180 191 2775.000000
0.11900000 20.09025002 7.25650024 172 180 191 2192.000000
0.11900000 20.08300018 7.25500011 172 180 191 1703.000000
0.11900000 20.07900047 7.25475025 172 180 191 1621.000000
0.11900000 20.09250069 7.26049995 172 180 191 1628.000000
0.11900000 20.08749962 7.25974989 115 121 133 1521.000000
0.11900000 20.08325005 7.25925016 115 121 133 1375.000000
0.11900000 20.08399963 7.26074982 115 121 133 1353.000000
0.11900000 20.08499908 7.26224995 115 121 133 1317.000000
0.11900000 20.07275009 7.25874996 115 121 133 1196.000000
0.11900000 20.08024979 7.26249981 115 121 133 1114.000000
0.11900000 20.08024979 7.26350021 115 121 133 1100.000000
0.11900000 20.08499908 7.26650000 115 121 133 1100.000000
0.11900000 20.09049988 7.26949978 115 121 133 1096.000000
0.11900000 20.06525040 7.26149988 66 68 81 1100.000000
0.11900000 20.08925056 7.27124977 66 68 81 1046.000000
0.11900000 20.08499908 7.27075005 66 68 81 1057.000000
0.11900000 20.08950043 7.27349997 66 68 81 1221.000000
0.11900000 20.08225060 7.27199984 66 68 81 1278.000000
0.11900000 20.09575081 7.27775002 66 68 81 1267.000000
0.11900000 20.07699966 7.27199984 66 68 81 1178.000000
0.11900000 20.07875061 7.27374983 66 68 81 1235.000000
0.11900000 20.07500076 7.27349997 66 68 81 1150.000000
0.11900000 20.08124924 7.27675009 60 56 70 1146.000000
0.11900000 20.07150078 7.27425003 60 56 70 1092.000000
0.11900000 20.08074951 7.27874994 60 56 70 1121.000000
0.11900000 20.07699966 7.27850008 60 56 70 1164.000000
0.11900000 20.08074951 7.28074980 60 56 70 1128.000000
0.11900000 20.06175041 7.27500010 60 56 70 1296.000000
0.11900000 20.08374977 7.28399992 60 56 70 1153.000000
0.11900000 20.07299995 7.28125000 60 56 70 1082.000000
0.11900000 20.06774902 7.28025007 60 56 70 1064.000000
0.11900000 20.06949997 7.28200006 67 56 72 1146.000000
0.11900000 20.06649971 7.28200006 67 56 72 1132.000000
0.11900000 20.06624985 7.28299999 67 56 72 1125.000000
0.12025000 20.11100006 7.19024992 74 63 80 1260.000000
0.12025000 20.11224937 7.19175005 74 63 80 1189.000000
0.12025000 20.11675072 7.19449997 64 55 74 1171.000000
0.12000000 20.10499954 7.19124985 64 55 74 1067.000000
0.12025000 20.12075043 7.19799995 64 55 74 1267.000000
0.12025000 20.10975075 7.19500017 64 55 74 1178.000000
0.12000000 20.10199928 7.19350004 64 55 74 1132.000000
0.12000000 20.10499954 7.19549990 64 55 74 1260.000000
0.12025000 20.11650085 7.20074987 64 55 74 1278.000000
0.12000000 20.10424995 7.19750023 64 55 74 1196.000000
0.12025000 20.10849953 7.19999981 64 55 74 1121.000000
0.12025000 20.11400032 7.20300007 57 49 70 1210.000000
0.12000000 20.10375023 7.20050001 57 49 70 1153.000000
0.12025000 20.11224937 7.20450020 57 49 70 1153.000000
0.12025000 20.11924934 7.20825005 57 49 70 1246.000000
0.12025000 20.10774994 7.20524979 57 49 70 1178.000000
0.12025000 20.10924911 7.20674992 57 49 70 1189.000000
0.12025000 20.11199951 7.20874977 57 49 70 1096.000000
0.12025000 20.10874939 7.20874977 57 49 70 1121.000000
0.12000000 20.10424995 7.20800018 57 49 70 1125.000000
0.12000000 20.09550095 7.20599985 59 54 76 1125.000000
0.12025000 20.11025047 7.21250010 59 54 76 1132.000000
0.12000000 20.10375023 7.21099997 59 54 76 1082.000000
0.12000000 20.10574913 7.21299982 59 54 76 1153.000000
0.12025000 20.11224937 7.21624994 59 54 76 1210.000000
0.12025000 20.11350060 7.21775007 59 54 76 1432.000000
0.12000000 20.10250092 7.21500015 59 54 76 1410.000000
0.12000000 20.10750008 7.21775007 59 54 76 1596.000000
0.12000000 20.09849930 7.21549988 59 54 76 1689.000000
0.12000000 20.10700035 7.21974993 73 68 91 1875.000000
0.12000000 20.09925079 7.21799994 73 68 91 2000.000000
0.12000000 20.10174942 7.21999979 73 68 91 2007.000000
0.12000000 20.09774971 7.21950006 73 68 91 2450.000000
0.12000000 20.10600090 7.22349977 73 68 91 2953.000000
0.12000000 20.10275078 7.22349977 73 68 91 4007.000000
0.12000000 20.10000038 7.22349977 73 68 91 5646.000000
0.12000000 20.09749985 7.22375011 73 68 91 8092.000000
0.12000000 20.09824944 7.22525024 73 68 91 11550.000000
0.12000000 20.09975052 7.22674990 110 106 131 16503.000000
0.12000000 20.09824944 7.22725010 110 106 131 22746.000000
0.12000000 20.09724998 7.22800016 110 106 131 28782.000000
0.12000000 20.09925079 7.22975016 110 106 131 32067.000000
0.12000000 20.09675026 7.22975016 110 106 131 32946.000000
0.12000000 20.09550095 7.23050022 110 106 131 32942.000000
0.12000000 20.09375000 7.23099995 110 106 131 33289.000000
0.12000000 20.09625053 7.23274994 110 106 131 35260.000000
0.12000000 20.09625053 7.23374987 110 106 131 35389.000000
0.12000000 20.09474945 7.23449993 153 153 177 34617.000000
0.12000000 20.09575081 7.23575020 153 153 177 33767.000000
0.12000000 20.09399986 7.23624992 153 153 177 33521.000000
0.12000000 20.09350014 7.23724985 153 153 177 33292.000000
0.12000000 20.09399986 7.23824978 153 153 177 33410.000000
0.12000000 20.09499931 7.23974991 153 153 177 34007.000000
0.12000000 20.09275055 7.23999977 153 153 177 34371.000000
0.12000000 20.09099960 7.24049997 153 153 177 34742.000000
0.12000000 20.09124947 7.24149990 153 153 177 34617.000000
0.12000000 20.09174919 7.24300003 190 197 213 35917.000000
0.12000000 20.09049988 7.24349976 190 197 213 36885.000000
0.12000000 20.09225082 7.24525023 190 197 213 37917.000000
0.12000000 20.09300041 7.24650002 190 197 213 37767.000000
0.12000000 20.09149933 7.24700022 190 197 213 35128.000000
0.12000000 20.09199905 7.24825001 190 197 213 30528.000000
0.12000000 20.09124947 7.24900007 190 197 213 24560.000000
0.12000000 20.09025002 7.24975014 190 197 213 17660.000000
0.12000000 20.09099960 7.25099993 190 197 213 11653.000000
0.12000000 20.08850098 7.25124979 172 180 191 7339.000000
0.12000000 20.08550072 7.25124979 172 180 191 4728.000000
0.12000000 20.08824921 7.25349998 172 180 191 3389.000000
0.12000000 20.08325005 7.25274992 172 180 191 2500.000000
0.12000000 20.09474945 7.25799990 172 180 191 1817.000000
0.12000000 20.08550072 7.25549984 172 180 191 1767.000000
0.12000000 20.08724976 7.25724983 172 180 191 1603.000000
0.12000000 20.08850098 7.25874996 172 180 191 1425.000000
0.12000000 20.07600021 7.25524998 172 180 191 1314.000000
0.12000000 20.07349968 7.25549984 115 121 133 1228.000000
0.12000000 20.08225060 7.25974989 115 121 133 1153.000000
0.12000000 20.08900070 7.26324987 115 121 133 1114.000000
0.12000000 20.08250046 7.26200008 115 121 133 1096.000000
0.12000000 20.08799934 7.26499987 115 121 133 1157.000000
0.12000000 20.08600044 7.26525021 115 121 133 1096.000000
0.12000000 20.07275009 7.26149988 115 121 133 1017.000000
0.12000000 20.08699989 7.26774979 115 121 133 942.000000
0.12000000 20.08650017 7.26875019 115 121 133 935.000000
0.12000000 20.07925034 7.26700020 66 68 81 942.000000
0.12000000 20.08699989 7.27099991 66 68 81 992.000000
0.12000000 20.07225037 7.26674986 66 68 81 1017.000000
0.12000000 20.08349991 7.27174997 66 68 81 1164.000000
0.12000000 20.09049988 7.27549982 66 68 81 1178.000000
0.12000000 20.07074928 7.26924992 66 68 81 1082.000000
0.12000000 20.08575058 7.27575016 66 68 81 1042.000000
0.12000000 20.08149910 7.27524996 66 68 81 1125.000000
0.12000000 20.07674980 7.27474976 66 68 81 1089.000000
0.11975000 20.06299973 7.27075005 60 56 70 1067.000000
0.12000000 20.07575035 7.27649975 60 56 70 1057.000000
0.12000000 20.07349968 7.27675009 60 56 70 1203.000000
0.12000000 20.08149910 7.28074980 60 56 70 1246.000000
0.12000000 20.08099937 7.28149986 60 56 70 1146.000000
0.12000000 20.07150078 7.27925014 60 56 70 1050.000000
0.12000000 20.07799911 7.28249979 60 56 70 1114.000000
0.11975000 20.06500053 7.27899981 60 56 70 1060.000000
0.12000000 20.07525063 7.28375006 67 56 72 1032.000000
0.12000000 20.06774902 7.28200006 67 56 72 1203.000000
0.12000000 20.07550049 7.28600025 67 56 72 1189.000000
0.12000000 20.07200050 7.28574991 67 56 72 1203.000000
0.12125000 20.12000084 7.19400024 74 63 80 1217.000000
0.12125000 20.10849953 7.19099998 74 63 80 1157.000000
0.12125000 20.10824966 7.19199991 64 55 74 1182.000000
0.12125000 20.13024902 7.20074987 64 55 74 1160.000000
0.12125000 20.11725044 7.19724989 64 55 74 1196.000000
0.12125000 20.11975098 7.19925022 64 55 74 1189.000000
0.12125000 20.11499977 7.19875002 64 55 74 1164.000000
0.12125000 20.11124992 7.19824982 64 55 74 1157.000000
0.12100000 20.10174942 7.19600010 64 55 74 1228.000000
0.12125000 20.11224937 7.20074987 64 55 74 1203.000000
0.12125000 20.11124992 7.20149994 64 55 74 1164.000000
0.12125000 20.11100006 7.20249987 57 49 70 1132.000000
0.12125000 20.11050034 7.20349979 57 49 70 1214.000000
0.12125000 20.12050056 7.20800018 57 49 70 1217.000000
0.12125000 20.11549950 7.20725012 57 49 70 1235.000000
0.12125000 20.11375046 7.20774984 57 49 70 1246.000000
0.12125000 20.10774994 7.20674992 57 49 70 1171.000000
0.12100000 20.09950066 7.20475006 57 49 70 1146.000000
0.12125000 20.11775017 7.21224976 57 49 70 1114.000000
0.12125000 20.10924911 7.21024990 57 49 70 1132.000000
0.12125000 20.10574913 7.21024990 59 54 76 1171.000000
0.12100000 20.09600067 7.20774984 59 54 76 1092.000000
0.12125000 20.11149979 7.21425009 59 54 76 1082.000000
0.12100000 20.10325050 7.21250010 59 54 76 1125.000000
0.12100000 20.09849930 7.21175003 59 54 76 1285.000000
0.12100000 20.10074997 7.21350002 59 54 76 1457.000000
0.12100000 20.09675026 7.21325016 59 54 76 1632.000000
0.12100000 20.10625076 7.21775007 59 54 76 1653.000000
0.12100000 20.10025024 7.21675014 59 54 76 1639.000000
0.12125000 20.10675049 7.21999979 73 68 91 1671.000000
0.12100000 20.10099983 7.21899986 73 68 91 1778.000000
0.12125000 20.10774994 7.22249985 73 68 91 1839.000000
0.12100000 20.10474968 7.22249985 73 68 91 2096.000000
0.12100000 20.10124969 7.22224998 73 68 91 2628.000000
0.12100000 20.09950066 7.22275019 73 68 91 3428.000000
0.12100000 20.09950066 7.22375011 73 68 91 4650.000000
0.12100000 20.10199928 7.22574997 73 68 91 6650.000000
0.12100000 20.09849930 7.22574997 73 68 91 10078.000000
0.12100000 20.09925079 7.22700024 110 106 131 15435.000000
0.12100000 20.09925079 7.22800016 110 106 131 21967.000000
0.12100000 20.09975052 7.22924995 110 106 131 26692.000000
0.12100000 20.09774971 7.22949982 110 106 131 29492.000000
0.12100000 20.09650040 7.23024988 110 106 131 31742.000000
0.12100000 20.09499931 7.23075008 110 106 131 32942.000000
0.12100000 20.09575081 7.23199987 110 106 131 34246.000000
0.12100000 20.09449959 7.23250008 110 106 131 34371.000000
0.12100000 20.09375000 7.23350000 110 106 131 34489.000000
0.12100000 20.09325027 7.23425007 153 153 177 33760.000000
0.12100000 20.09375000 7.23549986 153 153 177 33292.000000
0.12100000 20.09449959 7.23675013 153 153 177 33175.000000
0.12100000 20.09225082 7.23699999 153 153 177 33521.000000
0.12100000 20.09174919 7.23799992 153 153 177 34242.000000
0.12100000 20.09399986 7.23974991 153 153 177 36610.000000
0.12100000 20.09174919 7.23999977 153 153 177 37325.000000
0.12100000 20.09149933 7.24100018 153 153 177 38217.000000
0.12100000 20.09025002 7.24174976 153 153 177 37614.000000
0.12100000 20.09074974 7.24300003 190 197 213 38371.000000
0.12100000 20.08900070 7.24324989 190 197 213 39310.000000
0.12100000 20.09250069 7.24574995 190 197 213 38225.000000
0.12100000 20.09225082 7.24674988 190 197 213 34128.000000
0.12100000 20.09174919 7.24749994 190 197 213 28103.000000
0.12100000 20.09000015 7.24800014 190 197 213 21046.000000
0.12100000 20.09199905 7.24975014 190 197 213 13928.000000
0.12100000 20.08699989 7.24900007 190 197 213 8592.000000
0.12100000 20.08449936 7.24924994 172 180 191 5396.000000
0.12100000 20.09025002 7.25225019 172 180 191 3853.000000
0.12100000 20.08799934 7.25274992 172 180 191 2928.000000
0.12100000 20.08650017 7.25325012 172 180 191 2096.000000
0.12100000 20.07999992 7.25199986 172 180 191 1653.000000
0.12100000 20.08550072 7.25500011 172 180 191 1575.000000
0.12100000 20.08149910 7.25449991 172 180 191 1450.000000
0.12100000 20.08374977 7.25650024 172 180 191 1425.000000
0.12100000 20.08550072 7.25799990 172 180 191 1328.000000
0.12100000 20.09300041 7.26175022 115 121 133 1178.000000
0.12100000 20.08325005 7.25925016 115 121 133 1153.000000
0.12100000 20.08650017 7.26149988 115 121 133 1082.000000
0.12100000 20.08474922 7.26200008 115 121 133 1203.000000
0.12100000 20.09149933 7.26550007 115 121 133 1228.000000
0.12100000 20.07125092 7.25925016 115 121 133 1164.000000
0.12100000 20.09000015 7.26725006 115 121 133 1014.000000
0.12100000 20.08474922 7.26625013 115 121 133 992.000000
0.12100000 20.07049942 7.26224995 115 121 133 950.000000
0.12100000 20.08449936 7.26824999 66 68 81 992.000000
0.12100000 20.07374954 7.26550007 66 68 81 975.000000
0.12100000 20.08950043 7.27225018 66 68 81 1103.000000
0.12100000 20.08424950 7.27150011 66 68 81 1075.000000
0.12100000 20.07649994 7.26975012 66 68 81 985.000000
0.12100000 20.07649994 7.27099991 66 68 81 1075.000000
0.12100000 20.07225037 7.27050018 66 68 81 967.000000
0.12100000 20.08424950 7.27575016 66 68 81 975.000000
0.12100000 20.07825089 7.27474976 66 68 81 1067.000000
0.12100000 20.06749916 7.27174997 60 56 70 1114.000000
0.12100000 20.08349991 7.27874994 60 56 70 1214.000000
0.12100000 20.08149910 7.27899981 60 56 70 1171.000000
0.12100000 20.07125092 7.27624989 60 56 70 1264.000000
0.12100000 20.07950020 7.28049994 60 56 70 1196.000000
0.12100000 20.08024979 7.28175020 60 56 70 1096.000000
0.12100000 20.07724953 7.28175020 60 56 70 957.000000
0.12100000 20.07550049 7.28224993 60 56 70 985.000000
0.12100000 20.07175064 7.28175020 60 56 70 1032.000000
0.12075000 20.05699921 7.27750015 67 56 72 1107.000000
0.12100000 20.06749916 7.28249979 67 56 72 1139.000000
0.12100000 20.07424927 7.28600025 67 56 72 1182.000000
0.12100000 20.07625008 7.28775024 67 56 72 1235.000000
0.12200000 20.11300087 7.19099998 62 51 68 1107.000000
0.12200000 20.11849976 7.19400024 62 51 68 1121.000000
0.12225000 20.12750053 7.19850016 55 46 65 1178.000000
0.12200000 20.09724998 7.18849993 55 46 65 1228.000000
0.12200000 20.11849976 7.19724989 55 46 65 1121.000000
0.12200000 20.11499977 7.19700003 55 46 65 1046.000000
0.12200000 20.12125015 7.20025015 55 46 65 1103.000000
0.12200000 20.11075020 7.19775009 55 46 65 1082.000000
0.12200000 20.11624908 7.20074987 55 46 65 1132.000000
0.12200000 20.10574913 7.19799995 55 46 65 1007.000000
0.12200000 20.12025070 7.20424986 55 46 65 1132.000000
0.12200000 20.10824966 7.20100021 61 52 73 1125.000000
0.12200000 20.11224937 7.20349979 61 52 73 1178.000000
0.12200000 20.10050011 7.20050001 61 52 73 1082.000000
0.12200000 20.09575081 7.19974995 61 52 73 1246.000000
0.12200000 20.09925079 7.20225000 61 52 73 1278.000000
0.12200000 20.11199951 7.20774984 61 52 73 1153.000000
0.12200000 20.11124992 7.20849991 61 52 73 1189.000000
0.12200000 20.09499931 7.20400000 61 52 73 1182.000000
0.12200000 20.10449982 7.20825005 61 52 73 1071.000000
0.12200000 20.10074997 7.20800018 61 53 76 1082.000000
0.12200000 20.09025002 7.20524979 61 53 76 1035.000000
0.12200000 20.11924934 7.21675014 61 53 76 1050.000000
0.12200000 20.10199928 7.21175003 61 53 76 1146.000000
0.12200000 20.10975075 7.21549988 61 53 76 1210.000000
0.12200000 20.10449982 7.21474981 61 53 76 1317.000000
0.12200000 20.10325050 7.21525002 61 53 76 1435.000000
0.12200000 20.10549927 7.21700001 61 53 76 1482.000000
0.12200000 20.10025024 7.21624994 61 53 76 1521.000000
0.12200000 20.10025024 7.21724987 52 46 72 1639.000000
0.12200000 20.10799980 7.22125006 52 46 72 1653.000000
0.12200000 20.10149956 7.21999979 52 46 72 1696.000000
0.12200000 20.09749985 7.21950006 52 46 72 1824.000000
0.12200000 20.09474945 7.21950006 52 46 72 2139.000000
0.12200000 20.09824944 7.22174978 52 46 72 2357.000000
0.12200000 20.10474968 7.22525024 52 46 72 2864.000000
0.12200000 20.10025024 7.22475004 52 46 72 3892.000000
0.12200000 20.09700012 7.22475004 52 46 72 5607.000000
0.12200000 20.09849930 7.22625017 66 62 89 8253.000000
0.12200000 20.09950066 7.22774982 66 62 89 12407.000000
0.12200000 20.09774971 7.22825003 66 62 89 18271.000000
0.12200000 20.09675026 7.22875023 66 62 89 22803.000000
0.12200000 20.09849930 7.23050022 66 62 89 27225.000000
0.12200000 20.09724998 7.23124981 66 62 89 30239.000000
0.12200000 20.09774971 7.23250008 66 62 89 32174.000000
0.12200000 20.09625053 7.23299980 66 62 89 32389.000000
0.12200000 20.09550095 7.23374987 66 62 89 32946.000000
0.12200000 20.09724998 7.23549986 97 97 121 33414.000000
0.12200000 20.09399986 7.23525000 97 97 121 33407.000000
0.12200000 20.09424973 7.23649979 97 97 121 33525.000000
0.12200000 20.09199905 7.23675013 97 97 121 33639.000000
0.12200000 20.09350014 7.23824978 97 97 121 34125.000000
0.12200000 20.09199905 7.23874998 97 97 121 35650.000000
0.12200000 20.09099960 7.23950005 97 97 121 37614.000000
0.12200000 20.09199905 7.24100018 97 97 121 38217.000000
0.12200000 20.09124947 7.24174976 97 97 121 37914.000000
0.12200000 20.08950043 7.24224997 167 174 190 38835.000000
0.12200000 20.09174919 7.24399996 167 174 190 38525.000000
0.12200000 20.09074974 7.24475002 167 174 190 37764.000000
0.12200000 20.09074974 7.24574995 167 174 190 32946.000000
0.12200000 20.08900070 7.24625015 167 174 190 25817.000000
0.12200000 20.09149933 7.24825001 167 174 190 18696.000000
0.12200000 20.08875084 7.24825001 167 174 190 11439.000000
0.12200000 20.08774948 7.24900007 167 174 190 6857.000000
0.12200000 20.08625031 7.24949980 167 174 190 4503.000000
0.12200000 20.08600044 7.25050020 129 137 150 3217.000000
0.12200000 20.09300041 7.25400019 129 137 150 2496.000000
0.12200000 20.08275032 7.25150013 129 137 150 1907.000000
0.12200000 20.08650017 7.25400019 129 137 150 1607.000000
0.12200000 20.08124924 7.25299978 129 137 150 1492.000000
0.12200000 20.08300018 7.25475025 129 137 150 1442.000000
0.12200000 20.09499931 7.26025009 129 137 150 1260.000000
0.12200000 20.09925079 7.26275015 129 137 150 1246.000000
0.12200000 20.09474945 7.26224995 129 137 150 1178.000000
0.12200000 20.08699989 7.26049995 75 81 93 1189.000000
0.12200000 20.09375000 7.26399994 75 81 93 1196.000000
0.12200000 20.08300018 7.26125002 75 81 93 1203.000000
0.12200000 20.08124924 7.26149988 75 81 93 1214.000000
0.12175000 20.06024933 7.25500011 75 81 93 1100.000000
0.12200000 20.09174919 7.26749992 75 81 93 1050.000000
0.12200000 20.08499908 7.26599979 75 81 93 1064.000000
0.12200000 20.08424950 7.26674986 75 81 93 960.000000
0.12200000 20.08774948 7.26924992 75 81 93 1042.000000
0.12175000 20.07150078 7.26424980 55 54 68 1117.000000
0.12175000 20.06800079 7.26399994 55 54 68 1107.000000
0.12175000 20.07699966 7.26849985 55 54 68 1096.000000
0.12175000 20.07999992 7.27075005 55 54 68 1096.000000
0.12175000 20.06525040 7.26625013 55 54 68 1067.000000
0.12175000 20.07175064 7.26975012 55 54 68 1092.000000
0.12175000 20.07875061 7.27325010 55 54 68 1039.000000
0.12200000 20.08250046 7.27575016 55 54 68 1182.000000
0.12175000 20.07449913 7.27400017 55 54 68 1089.000000
0.12175000 20.06575012 7.27174997 66 59 75 1146.000000
0.12175000 20.07649994 7.27675009 66 59 75 1132.000000
0.12175000 20.07724953 7.27799988 66 59 75 1214.000000
0.12175000 20.07299995 7.27775002 66 59 75 1189.000000
0.12175000 20.06925011 7.27750015 66 59 75 1125.000000
0.12200000 20.08049965 7.28249979 66 59 75 1000.000000
0.12175000 20.06399918 7.27775002 66 59 75 967.000000
0.12200000 20.09025002 7.28824997 66 59 75 1032.000000
0.12175000 20.07674980 7.28450012 67 56 73 1042.000000
0.12175000 20.07175064 7.28375006 67 56 73 1189.000000
0.12175000 20.07950020 7.28749990 67 56 73 1203.000000
0.12175000 20.07674980 7.28749990 67 56 73 1182.000000
0.12175000 20.06825066 7.28550005 67 56 73 1150.000000
0.12300000 20.11425018 7.19075012 62 51 68 1075.000000
0.12300000 20.12574959 7.19600010 62 51 68 1078.000000
