//X Y Z R G B Intensity
0.12375000 20.10449982 7.21350002 66 64 88 1121.000000
0.12375000 20.10400009 7.21449995 66 64 88 1157.000000
0.12375000 20.09700012 7.21299982 66 64 88 1296.000000
0.12375000 20.10124969 7.21549988 66 64 88 1417.000000
0.12375000 20.10424995 7.21775007 66 64 88 1457.000000
0.12375000 20.10074997 7.21750021 66 64 88 1435.000000
0.12375000 20.09925079 7.21799994 66 64 88 1410.000000
0.12375000 20.10250092 7.22025013 66 64 88 1539.000000
0.12375000 20.09600067 7.21899986 68 70 95 1571.000000
0.12375000 20.09575081 7.21999979 68 70 95 1596.000000
0.12375000 20.09849930 7.22200012 68 70 95 1760.000000
0.12375000 20.09675026 7.22224998 68 70 95 2057.000000
0.12375000 20.10000038 7.22450018 68 70 95 2478.000000
0.12375000 20.09975052 7.22550011 68 70 95 3028.000000
0.12375000 20.09799957 7.22599983 68 70 95 4042.000000
0.12375000 20.10099983 7.22800016 68 70 95 5642.000000
0.12375000 20.09824944 7.22825003 68 70 95 7925.000000
0.12375000 20.10000038 7.23000002 96 100 125 11335.000000
0.12375000 20.09799957 7.23024988 96 100 125 15532.000000
0.12375000 20.09675026 7.23075008 96 100 125 20196.000000
0.12375000 20.09824944 7.23250008 96 100 125 25010.000000
0.12375000 20.09749985 7.23325014 96 100 125 29400.000000
0.12375000 20.09799957 7.23449993 96 100 125 32500.000000
0.12375000 20.09625053 7.23500013 96 100 125 34128.000000
0.12375000 20.09424973 7.23525000 96 100 125 35125.000000
0.12375000 20.09474945 7.23649979 96 100 125 35521.000000
0.12375000 20.09350014 7.23699999 148 153 175 35653.000000
0.12375000 20.09225082 7.23775005 148 153 175 36607.000000
0.12375000 20.09474945 7.23974991 148 153 175 36614.000000
0.12375000 20.09300041 7.24025011 148 153 175 35785.000000
0.12375000 20.09199905 7.24100018 148 153 175 35517.000000
0.12375000 20.09300041 7.24249983 148 153 175 35653.000000
0.12375000 20.09250069 7.24324989 148 153 175 34492.000000
0.12375000 20.09250069 7.24424982 148 153 175 31121.000000
0.12375000 20.08925056 7.24424982 190 191 209 25342.000000
0.12375000 20.09174919 7.24599981 190 191 209 18060.000000
0.12375000 20.09174919 7.24725008 190 191 209 11171.000000
0.12375000 20.09025002 7.24774981 190 191 209 7299.000000
0.12375000 20.09124947 7.24900007 190 191 209 4821.000000
0.12375000 20.09350014 7.25099993 190 191 209 3417.000000
0.12375000 20.09099960 7.25099993 190 191 209 2635.000000
0.12375000 20.09099960 7.25225019 190 191 209 1939.000000
0.12375000 20.09625053 7.25500011 190 191 209 1750.000000
0.12375000 20.08325005 7.25150013 146 143 160 1589.000000
0.12375000 20.09149933 7.25549984 146 143 160 1375.000000
0.12375000 20.08774948 7.25524998 146 143 160 1317.000000
0.12375000 20.07975006 7.25349998 146 143 160 1246.000000
0.12375000 20.07649994 7.25349998 146 143 160 1310.000000
0.12375000 20.08399963 7.25724983 146 143 160 1235.000000
0.12375000 20.08550072 7.25874996 146 143 160 1239.000000
0.12375000 20.08774948 7.26074982 146 143 160 1153.000000
0.12375000 20.08600044 7.26125002 146 143 160 1157.000000
0.12375000 20.08650017 7.26249981 93 91 105 1285.000000
0.12350000 20.07225037 7.25825024 93 91 105 1207.000000
0.12375000 20.07500076 7.26049995 93 91 105 1139.000000
0.12375000 20.08724976 7.26574993 93 91 105 1114.000000
0.12375000 20.07799911 7.26350021 93 91 105 1089.000000
0.12375000 20.09099960 7.26924992 93 91 105 1075.000000
0.12375000 20.08374977 7.26774979 93 91 105 1164.000000
0.12375000 20.08525085 7.26949978 93 91 105 1075.000000
0.12375000 20.08900070 7.27174997 93 91 105 1014.000000
0.12350000 20.06724930 7.26499987 67 63 78 1125.000000
0.12375000 20.08275032 7.27150011 67 63 78 1089.000000
0.12375000 20.07399940 7.26949978 67 63 78 1107.000000
0.12375000 20.07349968 7.27024984 67 63 78 1132.000000
0.12375000 20.07875061 7.27325010 67 63 78 1096.000000
0.12375000 20.07424927 7.27274990 67 63 78 992.000000
0.12375000 20.08950043 7.27925014 67 63 78 1057.000000
0.12375000 20.07424927 7.27474976 67 63 78 1007.000000
0.12375000 20.07649994 7.27675009 67 63 78 1107.000000
0.12375000 20.07500076 7.27724981 65 59 73 1100.000000
0.12375000 20.07399940 7.27799988 65 59 73 1082.000000
0.12375000 20.07649994 7.28000021 65 59 73 1075.000000
0.12350000 20.07099915 7.27899981 65 59 73 1064.000000
0.12350000 20.06150055 7.27675009 65 59 73 1032.000000
0.12375000 20.07825089 7.28399992 65 59 73 1014.000000
0.12375000 20.07825089 7.28499985 65 59 73 1050.000000
0.12350000 20.06649971 7.28175020 65 59 73 1107.000000
0.12350000 20.06599998 7.28275013 65 59 73 1150.000000
0.12375000 20.07424927 7.28674984 66 58 73 1121.000000
0.12350000 20.06649971 7.28474998 66 58 73 1075.000000
0.12350000 20.05800056 7.28275013 66 58 73 978.000000
0.12500000 20.11000061 7.18949986 79 64 87 928.000000
0.12500000 20.12000084 7.19425011 79 64 87 860.000000
0.12500000 20.11474991 7.19350004 79 64 87 910.000000
0.12500000 20.13100052 7.20025015 79 64 87 967.000000
0.12500000 20.11450005 7.19549990 79 64 87 1139.000000
0.12500000 20.11624908 7.19724989 70 58 82 1014.000000
0.12500000 20.10650063 7.19474983 70 58 82 1107.000000
0.12500000 20.11224937 7.19775009 70 58 82 1189.000000
0.12500000 20.10899925 7.19775009 70 58 82 1178.000000
0.12500000 20.10574913 7.19775009 70 58 82 1178.000000
0.12500000 20.11274910 7.20125008 70 58 82 1100.000000
0.12475000 20.09774971 7.19675016 70 58 82 1092.000000
0.12475000 20.08824921 7.19449997 70 58 82 1050.000000
0.12500000 20.11400032 7.20475006 70 58 82 1050.000000
0.12500000 20.10574913 7.20275021 61 56 79 1064.000000
0.12500000 20.12050056 7.20924997 61 56 79 1064.000000
0.12500000 20.10774994 7.20574999 61 56 79 1189.000000
0.12475000 20.08925056 7.20025015 61 56 79 1060.000000
0.12500000 20.11325073 7.21000004 61 56 79 1089.000000
0.12475000 20.10050011 7.20650005 61 56 79 1107.000000
0.12500000 20.10750008 7.21000004 61 56 79 1235.000000
0.12500000 20.10824966 7.21124983 61 56 79 1075.000000
0.12500000 20.11249924 7.21400023 61 56 79 1160.000000
0.12500000 20.11100006 7.21449995 66 64 88 1185.000000
0.12475000 20.09799957 7.21075010 66 64 88 1178.000000
0.12475000 20.09300041 7.21000004 66 64 88 1107.000000
0.12475000 20.09399986 7.21150017 66 64 88 1239.000000
0.12500000 20.11375046 7.21974993 66 64 88 1300.000000
0.12475000 20.09724998 7.21474981 66 64 88 1310.000000
0.12500000 20.11124992 7.22100019 66 64 88 1246.000000
0.12475000 20.10174942 7.21850014 66 64 88 1385.000000
0.12475000 20.09675026 7.21775007 66 64 88 1460.000000
0.12475000 20.09874916 7.21950006 68 70 95 1392.000000
0.12475000 20.10124969 7.22149992 68 70 95 1492.000000
0.12475000 20.08525085 7.21675014 68 70 95 1507.000000
0.12475000 20.10000038 7.22324991 68 70 95 1582.000000
0.12475000 20.09275055 7.22149992 68 70 95 1900.000000
0.12475000 20.09925079 7.22499990 68 70 95 2007.000000
0.12475000 20.09899902 7.22599983 68 70 95 2635.000000
0.12475000 20.09675026 7.22625017 68 70 95 3267.000000
0.12475000 20.09350014 7.22599983 68 70 95 4467.000000
0.12475000 20.09499931 7.22774982 96 100 125 6039.000000
0.12475000 20.09675026 7.22949982 96 100 125 9103.000000
0.12475000 20.09849930 7.23099995 96 100 125 12725.000000
0.12475000 20.09899902 7.23225021 96 100 125 18410.000000
0.12475000 20.09575081 7.23225021 96 100 125 23360.000000
0.12475000 20.09774971 7.23400021 96 100 125 28525.000000
0.12475000 20.09700012 7.23500013 96 100 125 31332.000000
0.12475000 20.09700012 7.23600006 96 100 125 33889.000000
0.12475000 20.09449959 7.23600006 96 100 125 35521.000000
0.12475000 20.09350014 7.23675013 148 153 175 36328.000000
0.12475000 20.09499931 7.23850012 148 153 175 36475.000000
0.12475000 20.09225082 7.23850012 148 153 175 36328.000000
0.12475000 20.09375000 7.23999977 148 153 175 35000.000000
0.12475000 20.09300041 7.24100018 148 153 175 34375.000000
0.12475000 20.09275055 7.24174976 148 153 175 33885.000000
0.12475000 20.09199905 7.24249983 148 153 175 32171.000000
0.12475000 20.09025002 7.24300003 148 153 175 28264.000000
0.12475000 20.09000015 7.24399996 148 153 175 22167.000000
0.12475000 20.09000015 7.24499989 190 191 209 15239.000000
0.12475000 20.09149933 7.24674988 190 191 209 9875.000000
0.12475000 20.09000015 7.24725008 190 191 209 6282.000000
0.12475000 20.08699989 7.24700022 190 191 209 4371.000000
0.12475000 20.09124947 7.24975014 190 191 209 2932.000000
0.12475000 20.09025002 7.25050020 190 191 209 2260.000000
0.12475000 20.09049988 7.25150013 190 191 209 1900.000000
0.12475000 20.08200073 7.24949980 190 191 209 1628.000000
0.12475000 20.09025002 7.25374985 190 191 209 1457.000000
0.12475000 20.09300041 7.25575018 146 143 160 1410.000000
0.12475000 20.08124924 7.25250006 146 143 160 1246.000000
0.12475000 20.07500076 7.25150013 146 143 160 1214.000000
0.12475000 20.08175087 7.25475025 146 143 160 1342.000000
0.12475000 20.08900070 7.25850010 146 143 160 1196.000000
0.12475000 20.09375000 7.26125002 146 143 160 1260.000000
0.12475000 20.08600044 7.25950003 146 143 160 1178.000000
0.12475000 20.07925034 7.25825024 146 143 160 1164.000000
0.12475000 20.08225060 7.26049995 146 143 160 1214.000000
0.12475000 20.08399963 7.26200008 93 91 105 1317.000000
0.12475000 20.08349991 7.26300001 93 91 105 1171.000000
0.12475000 20.08799934 7.26574993 93 91 105 1196.000000
0.12475000 20.08225060 7.26475000 93 91 105 1121.000000
0.12475000 20.08850098 7.26800013 93 91 105 1107.000000
0.12475000 20.09399986 7.27099991 93 91 105 1057.000000
0.12475000 20.08149910 7.26749992 93 91 105 1125.000000
0.12475000 20.08099937 7.26849985 93 91 105 1017.000000
0.12475000 20.07349968 7.26674986 93 91 105 1082.000000
0.12475000 20.08850098 7.27325010 67 63 78 1064.000000
0.12475000 20.06624985 7.26625013 67 63 78 1003.000000
0.12475000 20.07024956 7.26875019 67 63 78 1042.000000
0.12475000 20.07674980 7.27225018 67 63 78 1007.000000
0.12475000 20.07699966 7.27325010 67 63 78 1007.000000
0.12475000 20.07825089 7.27500010 67 63 78 1010.000000
0.12475000 20.07374954 7.27425003 67 63 78 1042.000000
0.12475000 20.08525085 7.27950001 67 63 78 1057.000000
0.12450000 20.06225014 7.27225018 67 63 78 1060.000000
0.12475000 20.08325005 7.28100014 65 59 73 1128.000000
0.12475000 20.08149910 7.28149986 65 59 73 1114.000000
0.12475000 20.08349991 7.28324986 65 59 73 989.000000
0.12475000 20.08399963 7.28450012 65 59 73 1007.000000
0.12475000 20.06949997 7.28025007 65 59 73 1032.000000
0.12475000 20.07724953 7.28424978 65 59 73 1121.000000
0.12475000 20.08124924 7.28674984 65 59 73 1114.000000
0.12450000 20.06399918 7.28149986 65 59 73 985.000000
0.12475000 20.09025002 7.29199982 66 58 73 1071.000000
0.12450000 20.06125069 7.28249979 66 58 73 1025.000000
0.12475000 20.08600044 7.29274988 66 58 73 1000.000000
0.12475000 20.07299995 7.28900003 66 58 73 992.000000
0.12575001 20.10524940 7.18849993 66 48 74 910.000000
0.12575001 20.11524963 7.19299984 66 48 74 992.000000
0.12575001 20.09849930 7.18825006 66 48 74 950.000000
0.12575001 20.12150002 7.19750023 66 48 74 1128.000000
0.12575001 20.10350037 7.19199991 66 48 74 1107.000000
0.12575001 20.12725067 7.20149994 54 40 66 1164.000000
0.12575001 20.11874962 7.19950008 54 40 66 1178.000000
0.12575001 20.10849953 7.19700003 54 40 66 1189.000000
0.12575001 20.12475014 7.20375013 54 40 66 1146.000000
0.12575001 20.10474968 7.19775009 54 40 66 1039.000000
0.12575001 20.11574936 7.20275021 54 40 66 957.000000
0.12575001 20.09874916 7.19775009 54 40 66 985.000000
0.12575001 20.10799980 7.20200014 54 40 66 1042.000000
0.12575001 20.11574936 7.20574999 54 40 66 1057.000000
0.12575001 20.10099983 7.20174980 60 51 78 1107.000000
0.12575001 20.11224937 7.20674992 60 51 78 1114.000000
0.12575001 20.10124969 7.20400000 60 51 78 1100.000000
0.12549999 20.08699989 7.19999981 60 51 78 1114.000000
0.12575001 20.10574913 7.20774984 60 51 78 1075.000000
0.12575001 20.11025047 7.21024990 60 51 78 1046.000000
0.12575001 20.10799980 7.21049976 60 51 78 1100.000000
0.12575001 20.10950089 7.21224976 60 51 78 1107.000000
0.12575001 20.10750008 7.21250010 60 51 78 1203.000000
0.12575001 20.10375023 7.21224976 67 63 90 1196.000000
0.12575001 20.10400009 7.21350002 67 63 90 1146.000000
0.12575001 20.10675049 7.21549988 67 63 90 1132.000000
0.12549999 20.09749985 7.21325016 67 63 90 1178.000000
0.12575001 20.11899948 7.22200012 67 63 90 1221.000000
0.12575001 20.10174942 7.21675014 67 63 90 1210.000000
0.12575001 20.10325050 7.21824980 67 63 90 1328.000000
0.12575001 20.09849930 7.21775007 67 63 90 1367.000000
0.12549999 20.08850098 7.21525002 67 63 90 1214.000000
0.12549999 20.09449959 7.21850014 53 53 79 1335.000000
0.12575001 20.10799980 7.22424984 53 53 79 1367.000000
0.12575001 20.10250092 7.22324991 53 53 79 1425.000000
0.12549999 20.08749962 7.21899986 53 53 79 1632.000000
0.12575001 20.09824944 7.22399998 53 53 79 1875.000000
0.12575001 20.10499954 7.22749996 53 53 79 2185.000000
0.12575001 20.09874916 7.22625017 53 53 79 2503.000000
0.12549999 20.09724998 7.22674990 53 53 79 3175.000000
0.12549999 20.09625053 7.22749996 53 53 79 4246.000000
0.12549999 20.09749985 7.22900009 60 64 91 5989.000000
0.12549999 20.09749985 7.23000002 60 64 91 8785.000000
0.12549999 20.09625053 7.23075008 60 64 91 12571.000000
0.12549999 20.09799957 7.23225021 60 64 91 17928.000000
0.12549999 20.09700012 7.23299980 60 64 91 24192.000000
0.12549999 20.09774971 7.23449993 60 64 91 28785.000000
0.12549999 20.09575081 7.23474979 60 64 91 31742.000000
0.12549999 20.09449959 7.23549986 60 64 91 34003.000000
0.12549999 20.09449959 7.23649979 60 64 91 35385.000000
0.12549999 20.09600067 7.23799992 101 103 128 35003.000000
0.12549999 20.09499931 7.23874998 101 103 128 34375.000000
0.12549999 20.09499931 7.23974991 101 103 128 34007.000000
0.12549999 20.09449959 7.24074984 101 103 128 32614.000000
0.12549999 20.09275055 7.24125004 101 103 128 32282.000000
0.12549999 20.09350014 7.24249983 101 103 128 30242.000000
0.12549999 20.09199905 7.24300003 101 103 128 24621.000000
0.12549999 20.09049988 7.24349976 101 103 128 19067.000000
0.12549999 20.08950043 7.24424982 101 103 128 12517.000000
0.12549999 20.09049988 7.24574995 162 160 181 7707.000000
0.12549999 20.08774948 7.24574995 162 160 181 4867.000000
0.12549999 20.08749962 7.24674988 162 160 181 3517.000000
0.12549999 20.09325027 7.24975014 162 160 181 2478.000000
0.12549999 20.09375000 7.25099993 162 160 181 1946.000000
0.12549999 20.09225082 7.25150013 162 160 181 1735.000000
0.12549999 20.08149910 7.24875021 162 160 181 1621.000000
0.12549999 20.07950020 7.24924994 162 160 181 1500.000000
0.12549999 20.08975029 7.25400019 109 106 123 1267.000000
0.12549999 20.08374977 7.25274992 109 106 123 1239.000000
0.12549999 20.08699989 7.25500011 109 106 123 1260.000000
0.12549999 20.08099937 7.25400019 109 106 123 1221.000000
0.12549999 20.08399963 7.25624990 109 106 123 1271.000000
0.12575001 20.10050011 7.26324987 109 106 123 1203.000000
0.12549999 20.08699989 7.25950003 109 106 123 1214.000000
0.12549999 20.08300018 7.25899982 109 106 123 1196.000000
0.12549999 20.07250023 7.25624990 109 106 123 1214.000000
0.12549999 20.08449936 7.26175022 66 63 80 1239.000000
0.12549999 20.09399986 7.26625013 66 63 80 1146.000000
0.12549999 20.06999969 7.25850010 66 63 80 1114.000000
0.12549999 20.08099937 7.26375008 66 63 80 1214.000000
0.12549999 20.08925056 7.26774979 66 63 80 1164.000000
0.12549999 20.08250046 7.26625013 66 63 80 1139.000000
0.12549999 20.08625031 7.26875019 66 63 80 1178.000000
0.12575001 20.09675026 7.27349997 66 63 80 1082.000000
0.12575001 20.09749985 7.27474976 66 63 80 1135.000000
0.12549999 20.08424950 7.27099991 62 58 73 1057.000000
0.12549999 20.08349991 7.27174997 62 58 73 1071.000000
0.12549999 20.07399940 7.26949978 62 58 73 1089.000000
0.12549999 20.08275032 7.27374983 62 58 73 1178.000000
0.12549999 20.07475090 7.27174997 62 58 73 1017.000000
0.12549999 20.08474922 7.27649975 62 58 73 925.000000
0.12549999 20.07900047 7.27549982 62 58 73 935.000000
0.12549999 20.07825089 7.27649975 62 58 73 1017.000000
0.12549999 20.08374977 7.27950001 62 58 73 1071.000000
0.12549999 20.08474922 7.28074980 68 61 77 1050.000000
0.12549999 20.07424927 7.27825022 68 61 77 1017.000000
0.12549999 20.07774925 7.28049994 68 61 77 928.000000
0.12549999 20.06925011 7.27850008 68 61 77 896.000000
0.12549999 20.06724930 7.27874994 68 61 77 1057.000000
0.12549999 20.06724930 7.28000021 68 61 77 1203.000000
0.12549999 20.06399918 7.27974987 68 61 77 1125.000000
0.12549999 20.06575012 7.28149986 68 61 77 1132.000000
0.12549999 20.07649994 7.28649998 68 61 77 1017.000000
0.12549999 20.07175064 7.28574991 58 50 65 975.000000
0.12549999 20.07850075 7.28924990 58 50 65 1139.000000
0.12549999 20.06649971 7.28600025 58 50 65 1000.000000
0.12549999 20.07774925 7.29099989 58 50 65 975.000000
0.12549999 20.06800079 7.28849983 58 50 65 925.000000
0.12549999 20.06349945 7.28775024 58 50 65 778.000000
0.12675001 20.11524963 7.19049978 66 48 74 910.000000
0.12675001 20.11775017 7.19224977 66 48 74 925.000000
0.12675001 20.12700081 7.19675016 66 48 74 957.000000
0.12675001 20.11675072 7.19400024 66 48 74 1032.000000
0.12675001 20.11174965 7.19325018 66 48 74 1153.000000
0.12675001 20.11450005 7.19525003 66 48 74 1153.000000
0.12675001 20.10625076 7.19350004 54 40 66 1139.000000
0.12675001 20.11849976 7.19899988 54 40 66 1071.000000
0.12650000 20.10275078 7.19425011 54 40 66 1025.000000
0.12675001 20.11800003 7.20100021 54 40 66 950.000000
0.12675001 20.10625076 7.19775009 54 40 66 835.000000
0.12675001 20.10625076 7.19875002 54 40 66 878.000000
0.12675001 20.11100006 7.20149994 54 40 66 1042.000000
0.12675001 20.11499977 7.20400000 54 40 66 1046.000000
0.12650000 20.10224915 7.20050001 54 40 66 1121.000000
0.12675001 20.10975075 7.20424986 60 51 78 1153.000000
0.12675001 20.11700058 7.20800018 60 51 78 1139.000000
0.12675001 20.11224937 7.20725012 60 51 78 1075.000000
0.12675001 20.11199951 7.20825005 60 51 78 1114.000000
0.12675001 20.11224937 7.20949984 60 51 78 1146.000000
0.12675001 20.11400032 7.21124983 60 51 78 1132.000000
0.12650000 20.09724998 7.20625019 60 51 78 1042.000000
0.12650000 20.10074997 7.20849991 60 51 78 1164.000000
0.12650000 20.09774971 7.20874977 60 51 78 1171.000000
0.12650000 20.09049988 7.20699978 67 63 90 1067.000000
0.12675001 20.10924911 7.21500015 67 63 90 1139.000000
0.12650000 20.10000038 7.21274996 67 63 90 1096.000000
0.12675001 20.10774994 7.21649981 67 63 90 1139.000000
0.12675001 20.10824966 7.21775007 67 63 90 1132.000000
0.12650000 20.09350014 7.21350002 67 63 90 1121.000000
0.12675001 20.10750008 7.21950006 67 63 90 1189.000000
0.12675001 20.10774994 7.22074986 67 63 90 1253.000000
0.12650000 20.10199928 7.21974993 67 63 90 1296.000000
0.12675001 20.11549950 7.22550011 53 53 79 1267.000000
0.12675001 20.11100006 7.22499990 53 53 79 1292.000000
0.12650000 20.10250092 7.22300005 53 53 79 1464.000000
0.12650000 20.09749985 7.22224998 53 53 79 1482.000000
0.12650000 20.09975052 7.22399998 53 53 79 1621.000000
0.12650000 20.10000038 7.22525024 53 53 79 1728.000000
0.12650000 20.09799957 7.22574997 53 53 79 1932.000000
0.12650000 20.09700012 7.22625017 53 53 79 2364.000000
0.12650000 20.09700012 7.22749996 53 53 79 3003.000000
0.12650000 20.09724998 7.22849989 60 64 91 3796.000000
0.12650000 20.09899902 7.23024988 60 64 91 5021.000000
0.12650000 20.09650040 7.23050022 60 64 91 7060.000000
0.12650000 20.09700012 7.23175001 60 64 91 11057.000000
0.12650000 20.09724998 7.23274994 60 64 91 16250.000000
0.12650000 20.09625053 7.23350000 60 64 91 20864.000000
0.12650000 20.09600067 7.23449993 60 64 91 26253.000000
0.12650000 20.09700012 7.23575020 60 64 91 29496.000000
0.12650000 20.09524918 7.23624992 60 64 91 32389.000000
0.12650000 20.09424973 7.23699999 101 103 128 33525.000000
0.12650000 20.09375000 7.23799992 101 103 128 33410.000000
0.12650000 20.09399986 7.23899984 101 103 128 32389.000000
0.12650000 20.09650040 7.24100018 101 103 128 31857.000000
0.12650000 20.09350014 7.24100018 101 103 128 31432.000000
0.12650000 20.09325027 7.24200010 101 103 128 28439.000000
0.12650000 20.09149933 7.24249983 101 103 128 24557.000000
0.12650000 20.09049988 7.24300003 101 103 128 18732.000000
0.12650000 20.09250069 7.24499989 101 103 128 12214.000000
0.12650000 20.08774948 7.24424982 162 160 181 7199.000000
0.12650000 20.08925056 7.24574995 162 160 181 4671.000000
0.12650000 20.08374977 7.24499989 162 160 181 3257.000000
0.12650000 20.08799934 7.24749994 162 160 181 2414.000000
0.12650000 20.08349991 7.24700022 162 160 181 1842.000000
0.12650000 20.08550072 7.24875021 162 160 181 1639.000000
0.12650000 20.08699989 7.25024986 162 160 181 1628.000000
0.12650000 20.09499931 7.25425005 162 160 181 1525.000000
0.12650000 20.08699989 7.25250006 162 160 181 1360.000000
0.12650000 20.08424950 7.25250006 109 106 123 1317.000000
0.12650000 20.07925034 7.25174999 109 106 123 1214.000000
0.12650000 20.09524918 7.25874996 109 106 123 1128.000000
0.12650000 20.09225082 7.25874996 109 106 123 1189.000000
0.12650000 20.08749962 7.25799990 109 106 123 1178.000000
0.12650000 20.07475090 7.25449991 109 106 123 1207.000000
0.12650000 20.09275055 7.26200008 109 106 123 1185.000000
0.12650000 20.08525085 7.26049995 109 106 123 1171.000000
0.12650000 20.07950020 7.25950003 109 106 123 1164.000000
0.12650000 20.07825089 7.26000023 66 63 80 1214.000000
0.12650000 20.07049942 7.25825024 66 63 80 1296.000000
0.12650000 20.07774925 7.26200008 66 63 80 1235.000000
0.12650000 20.09099960 7.26774979 66 63 80 1310.000000
0.12650000 20.08550072 7.26674986 66 63 80 1228.000000
0.12650000 20.08200073 7.26674986 66 63 80 1285.000000
0.12650000 20.09375000 7.27199984 66 63 80 1217.000000
0.12650000 20.08250046 7.26900005 66 63 80 1228.000000
0.12650000 20.08225060 7.26999998 66 63 80 1089.000000
0.12650000 20.08124924 7.27075005 62 58 73 975.000000
0.12650000 20.07900047 7.27075005 62 58 73 1010.000000
0.12650000 20.08900070 7.27549982 62 58 73 1064.000000
0.12650000 20.08399963 7.27474976 62 58 73 1082.000000
0.12650000 20.06850052 7.27024984 62 58 73 978.000000
0.12650000 20.08625031 7.27775002 62 58 73 989.000000
0.12650000 20.07950020 7.27624989 62 58 73 925.000000
0.12650000 20.07500076 7.27575016 62 58 73 992.000000
0.12650000 20.06599998 7.27374983 62 58 73 1017.000000
0.12650000 20.07399940 7.27750015 68 61 77 975.000000
0.12625000 20.06349945 7.27500010 68 61 77 985.000000
0.12650000 20.07099915 7.27874994 68 61 77 1010.000000
0.12625000 20.06200027 7.27649975 68 61 77 1032.000000
0.12650000 20.07125092 7.28100014 68 61 77 1082.000000
0.12650000 20.07175064 7.28224993 68 61 77 1132.000000
0.12650000 20.08024979 7.28625011 68 61 77 1146.000000
0.12625000 20.05775070 7.27925014 68 61 77 1157.000000
0.12650000 20.07374954 7.28600025 58 50 65 992.000000
0.12650000 20.07500076 7.28749990 58 50 65 1014.000000
0.12650000 20.07975006 7.29024982 58 50 65 1071.000000
0.12650000 20.06699944 7.28674984 58 50 65 1017.000000
0.12650000 20.07825089 7.29174995 58 50 65 1014.000000
0.12625000 20.06324959 7.28749990 58 50 65 917.000000
0.12625000 20.04174995 7.28074980 58 50 65 846.000000
0.12625000 20.05750084 7.28749990 58 50 65 892.000000
0.12625000 20.05075073 7.28600025 58 50 65 910.000000
0.12625000 20.05349922 7.28800011 55 44 60 1025.000000
0.12750000 20.11700058 7.19049978 66 48 74 885.000000
0.12750000 20.11174965 7.18975019 66 48 74 878.000000
0.12750000 20.12000084 7.19374990 66 48 74 957.000000
0.12750000 20.11499977 7.19299984 66 48 74 1017.000000
0.12750000 20.11300087 7.19325018 66 48 74 1071.000000
0.12750000 20.11174965 7.19400024 66 48 74 1017.000000
0.12750000 20.11075020 7.19474983 66 48 74 1107.000000
0.12750000 20.10774994 7.19474983 54 40 66 1067.000000
0.12750000 20.10025024 7.19299984 54 40 66 975.000000
0.12750000 20.10524940 7.19575024 54 40 66 942.000000
0.12774999 20.12549973 7.20400000 54 40 66 982.000000
0.12750000 20.10400009 7.19750023 54 40 66 878.000000
0.12750000 20.11325073 7.20174980 54 40 66 960.000000
0.12750000 20.10549927 7.19999981 54 40 66 960.000000
0.12750000 20.10375023 7.20050001 54 40 66 1064.000000
0.12750000 20.10474968 7.20200014 54 40 66 1121.000000
0.12750000 20.10574913 7.20324993 60 51 78 1125.000000
0.12750000 20.10849953 7.20550013 60 51 78 1096.000000
0.12750000 20.11400032 7.20849991 60 51 78 1132.000000
0.12750000 20.11750031 7.21075010 60 51 78 1114.000000
0.12750000 20.10950089 7.20900011 60 51 78 1089.000000
0.12750000 20.10899925 7.21000004 60 51 78 1139.000000
0.12750000 20.10750008 7.21024990 60 51 78 1185.000000
0.12750000 20.11075020 7.21250010 60 51 78 1146.000000
0.12774999 20.12174988 7.21750021 60 51 78 1071.000000
0.12750000 20.10149956 7.21150017 67 63 90 1178.000000
0.12750000 20.09424973 7.20975018 67 63 90 1042.000000
0.12750000 20.10074997 7.21325016 67 63 90 1146.000000
0.12750000 20.10874939 7.21724987 67 63 90 1210.000000
0.12750000 20.09375000 7.21274996 67 63 90 1182.000000
0.12750000 20.09975052 7.21600008 67 63 90 1182.000000
0.12750000 20.10650063 7.21950006 67 63 90 1164.000000
0.12750000 20.10050011 7.21850014 67 63 90 1253.000000
0.12750000 20.09749985 7.21850014 67 63 90 1178.000000
0.12750000 20.09600067 7.21899986 53 53 79 1196.000000
0.12750000 20.08124924 7.21474981 53 53 79 1214.000000
0.12750000 20.09499931 7.22074986 53 53 79 1360.000000
0.12750000 20.10325050 7.22475004 53 53 79 1489.000000
0.12750000 20.11100006 7.22849989 53 53 79 1489.000000
0.12750000 20.11824989 7.23225021 53 53 79 1732.000000
0.12750000 20.09824944 7.22599983 53 53 79 1996.000000
0.12750000 20.09399986 7.22550011 53 53 79 2164.000000
0.12750000 20.09749985 7.22774982 53 53 79 2367.000000
0.12750000 20.09774971 7.22900009 60 64 91 2907.000000
0.12750000 20.10050011 7.23099995 60 64 91 3828.000000
0.12750000 20.09449959 7.23000002 60 64 91 5203.000000
0.12750000 20.09600067 7.23175001 60 64 91 7657.000000
0.12750000 20.09650040 7.23299980 60 64 91 11167.000000
0.12750000 20.09799957 7.23449993 60 64 91 16085.000000
0.12750000 20.09625053 7.23500013 60 64 91 21378.000000
0.12750000 20.09749985 7.23649979 60 64 91 25824.000000
0.12750000 20.09474945 7.23649979 60 64 91 29582.000000
0.12750000 20.09600067 7.23799992 101 103 128 31535.000000
0.12750000 20.09375000 7.23824978 101 103 128 31850.000000
0.12750000 20.09524918 7.23974991 101 103 128 31332.000000
0.12750000 20.09300041 7.24025011 101 103 128 29764.000000
0.12750000 20.09250069 7.24100018 101 103 128 26103.000000
0.12750000 20.09350014 7.24249983 101 103 128 20332.000000
0.12750000 20.09099960 7.24275017 101 103 128 13807.000000
0.12750000 20.09000015 7.24349976 101 103 128 9164.000000
0.12750000 20.08975029 7.24424982 101 103 128 5721.000000
0.12750000 20.09099960 7.24574995 162 160 181 3935.000000
0.12750000 20.08525085 7.24475002 162 160 181 2782.000000
0.12750000 20.08900070 7.24725008 162 160 181 2260.000000
0.12750000 20.09049988 7.24875021 162 160 181 1832.000000
0.12750000 20.08600044 7.24825001 162 160 181 1628.000000
0.12750000 20.08925056 7.25050020 162 160 181 1596.000000
0.12750000 20.08525085 7.25000000 162 160 181 1442.000000
0.12750000 20.08200073 7.25000000 162 160 181 1335.000000
0.12750000 20.08799934 7.25325012 109 106 123 1292.000000
0.12750000 20.08625031 7.25374985 109 106 123 1228.000000
0.12750000 20.09424973 7.25775003 109 106 123 1335.000000
0.12750000 20.08424950 7.25524998 109 106 123 1260.000000
0.12750000 20.09550095 7.26025009 109 106 123 1128.000000
0.12750000 20.08550072 7.25775003 109 106 123 1171.000000
0.12750000 20.09025002 7.26049995 109 106 123 1121.000000
0.12725000 20.07950020 7.25775003 109 106 123 1157.000000
0.12725000 20.07999992 7.25899982 109 106 123 1189.000000
0.12725000 20.07600021 7.25874996 66 63 80 1114.000000
0.12750000 20.09474945 7.26650000 66 63 80 1121.000000
0.12750000 20.08774948 7.26499987 66 63 80 1132.000000
0.12750000 20.08724976 7.26599979 66 63 80 1239.000000
0.12750000 20.08774948 7.26700020 66 63 80 1260.000000
0.12750000 20.08799934 7.26824999 66 63 80 1310.000000
0.12750000 20.08250046 7.26725006 66 63 80 1317.000000
0.12750000 20.09099960 7.27150011 66 63 80 1253.000000
0.12750000 20.07850075 7.26800013 66 63 80 1207.000000
0.12750000 20.09199905 7.27374983 62 58 73 1050.000000
0.12725000 20.07275009 7.26800013 62 58 73 978.000000
0.12725000 20.07449913 7.26975012 62 58 73 1050.000000
0.12725000 20.07449913 7.27075005 62 58 73 1050.000000
0.12750000 20.07850075 7.27325010 62 58 73 1010.000000
0.12750000 20.07975006 7.27474976 62 58 73 982.000000
0.12725000 20.07424927 7.27374983 62 58 73 992.000000
0.12750000 20.07550049 7.27524996 62 58 73 1121.000000
0.12750000 20.08550072 7.28000021 62 58 73 1082.000000
0.12750000 20.08325005 7.28025007 68 61 77 1075.000000
0.12750000 20.08225060 7.28100014 68 61 77 957.000000
0.12750000 20.08850098 7.28450012 68 61 77 1007.000000
0.12750000 20.07625008 7.28100014 68 61 77 982.000000
0.12750000 20.08099937 7.28375006 68 61 77 1096.000000
0.12750000 20.08749962 7.28725004 68 61 77 1107.000000
0.12750000 20.07674980 7.28424978 68 61 77 1178.000000
0.12750000 20.08175087 7.28725004 68 61 77 1071.000000
0.12750000 20.07600021 7.28625011 68 61 77 982.000000
0.12725000 20.07225037 7.28600025 58 50 65 953.000000
0.12750000 20.07749939 7.28875017 58 50 65 928.000000
0.12750000 20.08474922 7.29250002 58 50 65 935.000000
0.12725000 20.06399918 7.28600025 58 50 65 985.000000
0.12725000 20.06399918 7.28700018 58 50 65 960.000000
0.12725000 20.06074905 7.28700018 58 50 65 1067.000000
0.12725000 20.05949974 7.28749990 58 50 65 1492.000000
0.12725000 20.05900002 7.28824997 58 50 65 2089.000000
0.12725000 20.05374908 7.28849983 55 44 60 2450.000000
0.12725000 20.05775070 7.28900003 58 50 65 2278.000000
0.12850000 20.11524963 7.18725014 77 54 80 992.000000
0.12850000 20.11149979 7.18674994 66 48 74 885.000000
0.12850000 20.11249924 7.18825006 66 48 74 1007.000000
0.12850000 20.10975075 7.18825006 66 48 74 928.000000
0.12875000 20.12849998 7.19624996 66 48 74 899.000000
0.12850000 20.11400032 7.19199991 66 48 74 1096.000000
0.12875000 20.12599945 7.19750023 66 48 74 982.000000
0.12875000 20.12500000 7.19824982 66 48 74 1000.000000
0.12850000 20.10499954 7.19199991 66 48 74 1032.000000
0.12850000 20.10824966 7.19425011 54 40 66 1025.000000
0.12850000 20.11725044 7.19850016 54 40 66 1017.000000
0.12850000 20.11624908 7.19925022 54 40 66 1064.000000
0.12850000 20.11199951 7.19875002 54 40 66 1000.000000
0.12875000 20.12450027 7.20424986 54 40 66 1000.000000
0.12850000 20.09774971 7.19575024 54 40 66 975.000000
0.12850000 20.10275078 7.19850016 54 40 66 1010.000000
0.12850000 20.10174942 7.19925022 54 40 66 917.000000
0.12875000 20.12475014 7.20849991 54 40 66 975.000000
0.12850000 20.11300087 7.20550013 60 51 78 1103.000000
0.12850000 20.09600067 7.20050001 60 51 78 1010.000000
0.12850000 20.10849953 7.20599985 60 51 78 1032.000000
0.12850000 20.09749985 7.20300007 60 51 78 1032.000000
0.12850000 20.10824966 7.20800018 60 51 78 1057.000000
0.12850000 20.10449982 7.20774984 60 51 78 1089.000000
0.12850000 20.11425018 7.21250010 60 51 78 1242.000000
0.12850000 20.08349991 7.20249987 60 51 78 1157.000000
0.12850000 20.10924911 7.21274996 60 51 78 1107.000000
0.12850000 20.10099983 7.21099997 67 63 90 1082.000000
0.12850000 20.10300064 7.21274996 67 63 90 1139.000000
0.12850000 20.10350037 7.21374989 67 63 90 1153.000000
0.12850000 20.11100006 7.21775007 67 63 90 1160.000000
0.12850000 20.09925079 7.21449995 67 63 90 1239.000000
0.12850000 20.10400009 7.21724987 67 63 90 1185.000000
0.12850000 20.11375046 7.22174978 67 63 90 1164.000000
0.12850000 20.10799980 7.22074986 67 63 90 1128.000000
0.12850000 20.10275078 7.21999979 67 63 90 1089.000000
0.12850000 20.10824966 7.22300005 53 53 79 1139.000000
0.12850000 20.10025024 7.22100019 53 53 79 1064.000000
0.12850000 20.10474968 7.22375011 53 53 79 1235.000000
0.12850000 20.10474968 7.22475004 53 53 79 1442.000000
0.12850000 20.09424973 7.22224998 53 53 79 1575.000000
0.12850000 20.10275078 7.22625017 53 53 79 1582.000000
0.12850000 20.09899902 7.22599983 53 53 79 1689.000000
0.12850000 20.09749985 7.22650003 53 53 79 1885.000000
0.12850000 20.08824921 7.22424984 53 53 79 1853.000000
0.12850000 20.09675026 7.22849989 60 64 91 2217.000000
0.12850000 20.09149933 7.22749996 60 64 91 2782.000000
0.12850000 20.09350014 7.22924995 60 64 91 3685.000000
0.12850000 20.09975052 7.23274994 60 64 91 5021.000000
0.12850000 20.09499931 7.23199987 60 64 91 7128.000000
0.12850000 20.09550095 7.23325014 60 64 91 9614.000000
0.12850000 20.09474945 7.23400021 60 64 91 14128.000000
0.12850000 20.09499931 7.23525000 60 64 91 18478.000000
0.12850000 20.09600067 7.23649979 60 64 91 24439.000000
0.12850000 20.09499931 7.23724985 101 103 128 27775.000000
0.12850000 20.09399986 7.23799992 101 103 128 29128.000000
0.12850000 20.09499931 7.23950005 101 103 128 29221.000000
0.12850000 20.09424973 7.24025011 101 103 128 27375.000000
0.12850000 20.09424973 7.24125004 101 103 128 23653.000000
0.12850000 20.09225082 7.24149990 101 103 128 17589.000000
0.12850000 20.09474945 7.24349976 101 103 128 12021.000000
0.12850000 20.09099960 7.24324989 101 103 128 7353.000000
0.12850000 20.08550072 7.24224997 101 103 128 4846.000000
0.12850000 20.09174919 7.24550009 162 160 181 3307.000000
0.12850000 20.09000015 7.24599981 162 160 181 2703.000000
0.12850000 20.09149933 7.24749994 162 160 181 2039.000000
0.12850000 20.09199905 7.24875021 162 160 181 1703.000000
0.12850000 20.08774948 7.24849987 162 160 181 1632.000000
0.12850000 20.08499908 7.24849987 162 160 181 1507.000000
0.12850000 20.08099937 7.24825001 162 160 181 1378.000000
0.12850000 20.09025002 7.25250006 162 160 181 1253.000000
0.12850000 20.08975029 7.25349998 162 160 181 1292.000000
0.12850000 20.09300041 7.25575018 109 106 123 1210.000000
0.12850000 20.08149910 7.25274992 109 106 123 1346.000000
0.12850000 20.09799957 7.25974989 109 106 123 1210.000000
0.12850000 20.09524918 7.25974989 109 106 123 1178.000000
0.12825000 20.06999969 7.25174999 109 106 123 1132.000000
0.12850000 20.09575081 7.26200008 109 106 123 1128.000000
0.12850000 20.08225060 7.25825024 109 106 123 1207.000000
0.12850000 20.08149910 7.25899982 109 106 123 1164.000000
0.12825000 20.07475090 7.25775003 109 106 123 1150.000000
0.12825000 20.07625008 7.25925016 66 63 80 1203.000000
0.12850000 20.08250046 7.26249981 66 63 80 1096.000000
0.12850000 20.08399963 7.26424980 66 63 80 1132.000000
0.12850000 20.08575058 7.26574993 66 63 80 1082.000000
0.12825000 20.07324982 7.26224995 66 63 80 1207.000000
0.12850000 20.08650017 7.26824999 66 63 80 1310.000000
0.12850000 20.08149910 7.26749992 66 63 80 1260.000000
0.12850000 20.08824921 7.27099991 66 63 80 1228.000000
0.12825000 20.07875061 7.26849985 66 63 80 1146.000000
0.12850000 20.08024979 7.27024984 62 58 73 1075.000000
0.12825000 20.07125092 7.26800013 62 58 73 978.000000
0.12825000 20.07850075 7.27174997 62 58 73 985.000000
0.12850000 20.09250069 7.27799988 62 58 73 1064.000000
0.12825000 20.06999969 7.27075005 62 58 73 1157.000000
0.12825000 20.07674980 7.27425003 62 58 73 1153.000000
0.12825000 20.07250023 7.27400017 62 58 73 1092.000000
0.12850000 20.08724976 7.28025007 62 58 73 1128.000000
0.12850000 20.09600067 7.28450012 68 61 77 1000.000000
0.12825000 20.07724953 7.27874994 68 61 77 982.000000
0.12825000 20.07374954 7.27874994 68 61 77 982.000000
0.12825000 20.06425095 7.27624989 68 61 77 1000.000000
0.12850000 20.08424950 7.28450012 68 61 77 1089.000000
0.12825000 20.07799911 7.28324986 68 61 77 1100.000000
0.12825000 20.06299973 7.27899981 68 61 77 1025.000000
0.12825000 20.06850052 7.28200006 68 61 77 1042.000000
0.12825000 20.06749916 7.28275013 68 61 77 1035.000000
0.12825000 20.07349968 7.28600025 58 50 65 967.000000
0.12825000 20.06925011 7.28550005 58 50 65 960.000000
0.12850000 20.08749962 7.29300022 58 50 65 935.000000
0.12850000 20.08099937 7.29174995 58 50 65 935.000000
0.12825000 20.07275009 7.28975010 58 50 65 1182.000000
0.12825000 20.06900024 7.28950024 58 50 65 1828.000000
0.12825000 20.06850052 7.29050016 58 50 65 2932.000000
0.12825000 20.06374931 7.28975010 58 50 65 4210.000000
0.12825000 20.06425095 7.29099989 58 50 65 4964.000000
0.12825000 20.06150055 7.29099989 58 50 65 5135.000000
0.12950000 20.11574936 7.18575001 77 54 80 1235.000000
0.12950000 20.10799980 7.18400002 77 54 80 1121.000000
0.12950000 20.10375023 7.18349981 66 48 74 985.000000
0.12950000 20.11700058 7.18924999 66 48 74 992.000000
0.12950000 20.11574936 7.19000006 66 48 74 967.000000
0.12950000 20.11599922 7.19124985 66 48 74 860.000000
0.12950000 20.12125015 7.19400024 66 48 74 950.000000
0.12950000 20.11599922 7.19325018 66 48 74 867.000000
0.12950000 20.10750008 7.19124985 66 48 74 1000.000000
0.12950000 20.10474968 7.19124985 66 48 74 992.000000
0.12950000 20.10050011 7.19075012 66 48 74 1042.000000
0.12950000 20.10824966 7.19474983 54 40 66 1178.000000
0.12950000 20.11524963 7.19824982 54 40 66 1082.000000
0.12950000 20.10074997 7.19425011 54 40 66 1114.000000
0.12950000 20.10725021 7.19750023 54 40 66 957.000000
0.12950000 20.12400055 7.20450020 54 40 66 932.000000
0.12950000 20.11924934 7.20400000 54 40 66 942.000000
0.12950000 20.11899948 7.20499992 54 40 66 967.000000
0.12950000 20.11425018 7.20424986 54 40 66 932.000000
0.12950000 20.11350060 7.20499992 54 40 66 960.000000
0.12950000 20.10750008 7.20400000 60 51 78 928.000000
0.12950000 20.11975098 7.20949984 60 51 78 917.000000
0.12950000 20.10199928 7.20424986 60 51 78 975.000000
0.12950000 20.11725044 7.21075010 60 51 78 1039.000000
0.12950000 20.10549927 7.20749998 60 51 78 1121.000000
0.12950000 20.10000038 7.20674992 60 51 78 1150.000000
0.12950000 20.11025047 7.21150017 60 51 78 1185.000000
0.12950000 20.10149956 7.20924997 60 51 78 1210.000000
0.12950000 20.09899902 7.20949984 60 51 78 1178.000000
0.12950000 20.11574936 7.21649981 67 63 90 1135.000000
0.12950000 20.10099983 7.21224976 67 63 90 1164.000000
0.12925000 20.09350014 7.21075010 67 63 90 1203.000000
0.12950000 20.11000061 7.21775007 67 63 90 1164.000000
0.12925000 20.08950043 7.21150017 67 63 90 1132.000000
0.12950000 20.09975052 7.21600008 67 63 90 1000.000000
0.12950000 20.10400009 7.21875000 67 63 90 1000.000000
0.12950000 20.09474945 7.21649981 67 63 90 1032.000000
0.12950000 20.10750008 7.22200012 67 63 90 1089.000000
0.12950000 20.10275078 7.22125006 53 53 79 1071.000000
0.12950000 20.09700012 7.22025013 53 53 79 1096.000000
0.12950000 20.10499954 7.22424984 53 53 79 1050.000000
0.12950000 20.10625076 7.22574997 53 53 79 1350.000000
0.12950000 20.10675049 7.22700024 53 53 79 1385.000000
0.12950000 20.09774971 7.22475004 53 53 79 1378.000000
0.12950000 20.09925079 7.22650003 53 53 79 1507.000000
0.12925000 20.09049988 7.22424984 53 53 79 1628.000000
0.12950000 20.09600067 7.22749996 53 53 79 1860.000000
0.12950000 20.09575081 7.22825003 60 64 91 2139.000000
0.12950000 20.09650040 7.22975016 60 64 91 2521.000000
0.12950000 20.10174942 7.23274994 60 64 91 3157.000000
0.12925000 20.09275055 7.23050022 60 64 91 4150.000000
0.12950000 20.09675026 7.23299980 60 64 91 5357.000000
0.12925000 20.09300041 7.23274994 60 64 91 7274.000000
0.12950000 20.09749985 7.23525000 60 64 91 10796.000000
0.12950000 20.09499931 7.23549986 60 64 91 15117.000000
0.12950000 20.09499931 7.23649979 60 64 91 19696.000000
0.12925000 20.09375000 7.23724985 101 103 128 23075.000000
0.12925000 20.09424973 7.23850012 101 103 128 25010.000000
0.12925000 20.09300041 7.23899984 101 103 128 24064.000000
0.12925000 20.09474945 7.24074984 101 103 128 21517.000000
0.12950000 20.09550095 7.24200010 101 103 128 16332.000000
0.12925000 20.09325027 7.24249983 101 103 128 11289.000000
0.12925000 20.09074974 7.24249983 101 103 128 6735.000000
0.12925000 20.08699989 7.24224997 101 103 128 4582.000000
0.12925000 20.08525085 7.24275017 101 103 128 3300.000000
0.12925000 20.09074974 7.24574995 162 160 181 2617.000000
0.12925000 20.08099937 7.24324989 162 160 181 2082.000000
0.12950000 20.10025024 7.25124979 162 160 181 1703.000000
0.12925000 20.08675003 7.24749994 162 160 181 1614.000000
0.12925000 20.09375000 7.25099993 162 160 181 1482.000000
0.12925000 20.09199905 7.25150013 162 160 181 1335.000000
0.12925000 20.08950043 7.25150013 162 160 181 1435.000000
0.12925000 20.08575058 7.25124979 162 160 181 1328.000000
0.12950000 20.09824944 7.25699997 109 106 123 1210.000000
0.12925000 20.08250046 7.25225019 109 106 123 1171.000000
0.12925000 20.09025002 7.25624990 109 106 123 1203.000000
0.12925000 20.08625031 7.25600004 109 106 123 1178.000000
0.12925000 20.07724953 7.25374985 109 106 123 1264.000000
0.12925000 20.08149910 7.25624990 109 106 123 1196.000000
0.12925000 20.09149933 7.26100016 109 106 123 1260.000000
0.12925000 20.08699989 7.26049995 109 106 123 1096.000000
0.12925000 20.08525085 7.26100016 109 106 123 1196.000000
0.12925000 20.08550072 7.26200008 66 63 80 1139.000000
0.12925000 20.07799911 7.26049995 66 63 80 1057.000000
0.12925000 20.08975029 7.26574993 66 63 80 1082.000000
0.12925000 20.08449936 7.26475000 66 63 80 1139.000000
0.12925000 20.06825066 7.26000023 66 63 80 1125.000000
0.12925000 20.07600021 7.26399994 66 63 80 1239.000000
0.12925000 20.07749939 7.26550007 66 63 80 1310.000000
0.12925000 20.08749962 7.26999998 66 63 80 1325.000000
0.12925000 20.07349968 7.26625013 66 63 80 1335.000000
0.12925000 20.07550049 7.26800013 62 58 73 1189.000000
0.12925000 20.09124947 7.27474976 62 58 73 1075.000000
0.12925000 20.08499908 7.27349997 62 58 73 1014.000000
0.12950000 20.09925079 7.27974987 62 58 73 1064.000000
0.12925000 20.07649994 7.27250004 62 58 73 1096.000000
0.12925000 20.08149910 7.27549982 62 58 73 1189.000000
0.12925000 20.08374977 7.27724981 62 58 73 1271.000000
0.12925000 20.06825066 7.27274990 62 58 73 1203.000000
0.12925000 20.08774948 7.28100014 62 58 73 1153.000000
0.12925000 20.08200073 7.28000021 68 61 77 1107.000000
0.12925000 20.06800079 7.27600002 68 61 77 992.000000
0.12925000 20.06649971 7.27649975 68 61 77 960.000000
0.12925000 20.07500076 7.28049994 68 61 77 960.000000
0.12925000 20.07875061 7.28299999 68 61 77 1039.000000
0.12925000 20.06649971 7.27950001 68 61 77 1050.000000
0.12925000 20.08200073 7.28625011 68 61 77 1096.000000
0.12925000 20.07774925 7.28574991 68 61 77 1007.000000
0.12925000 20.06425095 7.28200006 68 61 77 1064.000000
0.12925000 20.07250023 7.28600025 58 50 65 992.000000
0.12925000 20.06900024 7.28574991 58 50 65 917.000000
0.12925000 20.07500076 7.28875017 58 50 65 1000.000000
0.12925000 20.06550026 7.28649998 58 50 65 1189.000000
0.12925000 20.06299973 7.28649998 58 50 65 1539.000000
0.12925000 20.06550026 7.28849983 58 50 65 2692.000000
0.12925000 20.06525040 7.28950024 58 50 65 4375.000000
0.12925000 20.06500053 7.29050016 58 50 65 6035.000000
0.12925000 20.06500053 7.29150009 58 50 65 6557.000000
0.12925000 20.06175041 7.29150009 55 44 60 6271.000000
0.13050000 20.11524963 7.18400002 77 54 80 1042.000000
0.13050000 20.10424995 7.18099976 77 54 80 1182.000000
0.13050000 20.11874962 7.18725014 77 54 80 1121.000000
0.13050000 20.12675095 7.19124985 77 54 80 1096.000000
0.13050000 20.10950089 7.18625021 66 48 74 1010.000000
0.13050000 20.12924957 7.19425011 66 48 74 1000.000000
0.13050000 20.11499977 7.19024992 66 48 74 1057.000000
0.13050000 20.11775017 7.19224977 66 48 74 910.000000
0.13050000 20.12199974 7.19474983 66 48 74 989.000000
0.13050000 20.11000061 7.19175005 66 48 74 925.000000
0.13050000 20.11199951 7.19350004 66 48 74 1025.000000
0.13050000 20.11300087 7.19474983 66 48 74 1107.000000
0.13050000 20.10924911 7.19449997 66 48 74 1139.000000
0.13050000 20.11149979 7.19649982 54 40 66 1153.000000
0.13050000 20.10725021 7.19600010 54 40 66 1050.000000
0.13050000 20.11000061 7.19799995 54 40 66 1007.000000
0.13050000 20.10375023 7.19675016 54 40 66 953.000000
0.13025001 20.09925079 7.19624996 54 40 66 871.000000
0.13050000 20.11549950 7.20324993 54 40 66 885.000000
0.13050000 20.11300087 7.20324993 54 40 66 910.000000
0.13050000 20.11149979 7.20375013 54 40 66 967.000000
0.13025001 20.09474945 7.19899988 60 51 78 917.000000
0.13025001 20.10074997 7.20225000 60 51 78 925.000000
0.13050000 20.10625076 7.20524979 60 51 78 967.000000
0.13025001 20.10149956 7.20450020 60 51 78 1132.000000
0.13050000 20.10224915 7.20599985 60 51 78 1157.000000
0.13025001 20.09849930 7.20550013 60 51 78 1121.000000
0.13025001 20.09925079 7.20699978 60 51 78 1064.000000
0.13025001 20.09625053 7.20699978 60 51 78 1171.000000
0.13025001 20.10000038 7.20949984 60 51 78 1132.000000
0.13050000 20.11325073 7.21525002 67 63 90 1107.000000
0.13050000 20.10874939 7.21474981 67 63 90 1178.000000
0.13025001 20.09550095 7.21099997 67 63 90 1178.000000
0.13050000 20.10524940 7.21549988 67 63 90 1139.000000
0.13025001 20.09625053 7.21350002 67 63 90 1039.000000
0.13025001 20.10099983 7.21624994 67 63 90 1064.000000
0.13050000 20.11075020 7.22074986 67 63 90 1007.000000
0.13025001 20.09849930 7.21724987 67 63 90 967.000000
0.13050000 20.10499954 7.22074986 67 63 90 1075.000000
0.13025001 20.09474945 7.21799994 53 53 79 1057.000000
0.13025001 20.08699989 7.21649981 53 53 79 1067.000000
0.13025001 20.09000015 7.21850014 53 53 79 1196.000000
0.13025001 20.09749985 7.22224998 53 53 79 1296.000000
0.13025001 20.10124969 7.22475004 53 53 79 1407.000000
0.13050000 20.10375023 7.22674990 53 53 79 1410.000000
0.13025001 20.09025002 7.22275019 53 53 79 1367.000000
0.13050000 20.10300064 7.22849989 53 53 79 1457.000000
0.13025001 20.09625053 7.22725010 53 53 79 1582.000000
0.13025001 20.09399986 7.22749996 60 64 91 1810.000000
0.13025001 20.10250092 7.23150015 60 64 91 2028.000000
0.13025001 20.09225082 7.22900009 60 64 91 2450.000000
0.13025001 20.10050011 7.23299980 60 64 91 2896.000000
0.13025001 20.09250069 7.23124981 60 64 91 3371.000000
0.13025001 20.09375000 7.23274994 60 64 91 4510.000000
0.13025001 20.09250069 7.23325014 60 64 91 6228.000000
0.13025001 20.09399986 7.23474979 60 64 91 8900.000000
0.13025001 20.09650040 7.23675013 60 64 91 12357.000000
0.13025001 20.09499931 7.23724985 101 103 128 16585.000000
0.13025001 20.09524918 7.23850012 101 103 128 19457.000000
0.13025001 20.09399986 7.23899984 101 103 128 21046.000000
0.13025001 20.09449959 7.24025011 101 103 128 19146.000000
0.13025001 20.09375000 7.24100018 101 103 128 14650.000000
0.13025001 20.09625053 7.24300003 101 103 128 10132.000000
0.13025001 20.09074974 7.24200010 101 103 128 6875.000000
0.13025001 20.08875084 7.24249983 101 103 128 4492.000000
0.13025001 20.09099960 7.24424982 101 103 128 3403.000000
0.13025001 20.09000015 7.24499989 162 160 181 2507.000000
0.13025001 20.08325005 7.24349976 162 160 181 2057.000000
0.13025001 20.09449959 7.24875021 162 160 181 1900.000000
0.13025001 20.10250092 7.25274992 162 160 181 1710.000000
0.13025001 20.09275055 7.25024986 162 160 181 1628.000000
0.13025001 20.09325027 7.25150013 162 160 181 1514.000000
0.13025001 20.08049965 7.24800014 162 160 181 1417.000000
0.13025001 20.09099960 7.25274992 162 160 181 1342.000000
0.13025001 20.09799957 7.25650024 162 160 181 1267.000000
0.13025001 20.08449936 7.25250006 109 106 123 1089.000000
0.13025001 20.07875061 7.25174999 109 106 123 1175.000000
0.13025001 20.07575035 7.25174999 109 106 123 1157.000000
0.13025001 20.09675026 7.26025009 109 106 123 1303.000000
0.13025001 20.08625031 7.25750017 109 106 123 1228.000000
0.13025001 20.08124924 7.25675011 109 106 123 1253.000000
0.13025001 20.07875061 7.25699997 109 106 123 1303.000000
0.13025001 20.07699966 7.25724983 109 106 123 1164.000000
0.13025001 20.07525063 7.25775003 109 106 123 1089.000000
0.13025001 20.08925056 7.26399994 66 63 80 1157.000000
0.13025001 20.07774925 7.26074982 66 63 80 1150.000000
0.13025001 20.08024979 7.26275015 66 63 80 1264.000000
0.13025001 20.07724953 7.26275015 66 63 80 1253.000000
0.13025001 20.07575035 7.26324987 66 63 80 1232.000000
0.13025001 20.07950020 7.26574993 66 63 80 1367.000000
0.13025001 20.06974983 7.26324987 66 63 80 1442.000000
0.13025001 20.08774948 7.27075005 66 63 80 1310.000000
0.13025001 20.06999969 7.26550007 66 63 80 1328.000000
0.13025001 20.09124947 7.27425003 62 58 73 1103.000000
0.13025001 20.06999969 7.26774979 62 58 73 1107.000000
0.13025001 20.08824921 7.27524996 62 58 73 1050.000000
