//X Y Z R G B Intensity
-0.04375000 5.30725002 0.02700000 229 235 249 36442
-0.04375000 5.30725002 0.02800000 240 243 255 36592
-0.04375000 5.30725002 0.02900000 240 243 255 34896
-0.04375000 5.30849981 0.03100000 239 242 255 24689
-0.04375000 5.30875015 0.03200000 202 203 221 17610
-0.04375000 5.30775023 0.03300000 202 203 221 12032
-0.04375000 5.30900002 0.03600000 155 154 172 7889
-0.04375000 5.30875015 0.03800000 108 105 124 6864
-0.04375000 5.30849981 0.04000000 92 87 109 7228
-0.04375000 5.30875015 0.04300000 90 80 104 8096
-0.04375000 5.30924988 0.04400000 90 80 104 8360
-0.04375000 5.30975008 0.04700000 90 80 104 8360
-0.04375000 5.30900002 0.04900000 91 79 103 7360
-0.04375000 5.30975008 0.05000000 92 80 104 6650
-0.04375000 5.30999994 0.05100000 92 80 104 6860
-0.04375000 5.31024981 0.05200000 89 77 99 7274
-0.04375000 5.31075001 0.05300000 89 77 99 6817
-0.04375000 5.31050014 0.05400000 92 81 97 6710
-0.04375000 5.31024981 0.05500000 92 81 97 6285
-0.04375000 5.31099987 0.05700000 91 80 96 5696
-0.04375000 5.30999994 0.05900000 91 78 96 5267
-0.04375000 5.30950022 0.06100000 91 78 98 4996
-0.04375000 5.30975008 0.06200000 91 78 98 5046
-0.04375000 5.31099987 0.06300000 91 75 101 5000
-0.04375000 5.31150007 0.06400000 91 75 101 5325
-0.04375000 5.31075001 0.06500000 90 74 101 5757
-0.04375000 5.31125021 0.06600000 90 74 101 6375
-0.04375000 5.31050014 0.06700000 90 74 101 6860
-0.04375000 5.31050014 0.06800000 90 73 105 7435
-0.04375000 5.31024981 0.06900000 90 73 105 6885
-0.04375000 5.31050014 0.07000000 90 73 107 6878
-0.04375000 5.31174994 0.07225000 91 74 108 6314
-0.04375000 5.31125021 0.07300000 91 74 108 7099
-0.04375000 5.31125021 0.07500000 88 73 104 8046
-0.04375000 5.31150007 0.07600000 89 78 108 8678
-0.04375000 5.31099987 0.07700000 89 78 108 8250
-0.04375000 5.31125021 0.07825000 89 78 108 7728
-0.04375000 5.31225014 0.07925000 90 81 108 7617
-0.04375000 5.31250000 0.08025000 90 81 108 8760
-0.04375000 5.31125021 0.08100000 82 77 100 11753
-0.04375000 5.31250000 0.08225000 82 77 100 15917
-0.04375000 5.31150007 0.08325000 94 91 112 23207
-0.04375000 5.31174994 0.08425000 94 91 112 28392
-0.04375000 5.31199980 0.08725000 203 205 220 40307
-0.04375000 5.31250000 0.08825000 203 205 220 37771
-0.04375000 5.31349993 0.08925000 203 205 220 36839
-0.04375000 5.31274986 0.09025000 232 236 248 37928
-0.04375000 5.31225014 0.09325000 237 241 253 41221
-0.04375000 5.31250000 0.09425000 233 239 251 40482
-0.04375000 5.31349993 0.09525000 233 239 251 39414
-0.04375000 5.31349993 0.09625000 230 236 248 37292
-0.04375000 5.31300020 0.09725000 230 236 248 35535
-0.04375000 5.31250000 0.09825000 230 236 248 36253
-0.04375000 5.31349993 0.10225000 236 243 253 35957
-0.04375000 5.31300020 0.10525000 234 238 247 34985
-0.04375000 5.31349993 0.10625000 234 238 247 33178
-0.04375000 5.31424999 0.10725000 235 238 245 22114
-0.04375000 5.31325006 0.10825000 235 238 245 10603
-0.04275000 5.30674982 0.00250000 111 94 100 4664
-0.04275000 5.30625010 0.00650000 129 120 139 11846
-0.04275000 5.30725002 0.00750000 163 160 181 21828
-0.04275000 5.30749989 0.00850000 163 160 181 29828
-0.04275000 5.30700016 0.01050000 201 202 220 33110
-0.04275000 5.30725002 0.01250000 224 230 244 35585
-0.04275000 5.30700016 0.01350000 224 230 244 36896
-0.04275000 5.30700016 0.01450000 231 241 251 37817
-0.04275000 5.30674982 0.01650000 233 243 252 35871
-0.04275000 5.30700016 0.01750000 233 243 252 36014
-0.04275000 5.30775023 0.02050000 228 237 246 33350
-0.04275000 5.30749989 0.02250000 234 242 253 37189
-0.04275000 5.30849981 0.02350000 233 239 251 38953
-0.04275000 5.30849981 0.02550000 229 235 249 38453
-0.04275000 5.30849981 0.02750000 240 243 255 36735
-0.04275000 5.30775023 0.02850000 240 243 255 35032
-0.04275000 5.30749989 0.02950000 240 243 255 29928
-0.04275000 5.30775023 0.03250000 202 203 221 10792
-0.04275000 5.30900002 0.03350000 202 203 221 8942
-0.04275000 5.30775023 0.03450000 155 154 172 9096
-0.04275000 5.30950022 0.03550000 155 154 172 8492
-0.04275000 5.30975008 0.03650000 108 105 124 7707
-0.04275000 5.30924988 0.03750000 108 105 124 7325
-0.04275000 5.30924988 0.03850000 92 87 109 7457
-0.04275000 5.30999994 0.04150000 86 78 101 7274
-0.04275000 5.30875015 0.04350000 90 80 104 7925
-0.04275000 5.30924988 0.04450000 90 80 104 8689
-0.04275000 5.30924988 0.04550000 90 80 104 7735
-0.04275000 5.30900002 0.04650000 90 80 104 7196
-0.04275000 5.30875015 0.04750000 91 79 103 7007
-0.04275000 5.30975008 0.04850000 91 79 103 7453
-0.04275000 5.30924988 0.04950000 91 79 103 7603
-0.04275000 5.31050014 0.05050000 92 80 104 7739
-0.04275000 5.31050014 0.05350000 89 77 99 7232
-0.04275000 5.31075001 0.05450000 92 81 97 6792
-0.04275000 5.30975008 0.05550000 92 81 97 6267
-0.04275000 5.31050014 0.05750000 91 80 96 5242
-0.04275000 5.30999994 0.06050000 91 78 96 4467
-0.04275000 5.31075001 0.06250000 91 78 98 4510
-0.04275000 5.31174994 0.06450000 91 75 101 5642
-0.04275000 5.31150007 0.06550000 90 74 101 6217
-0.04275000 5.31099987 0.06750000 90 73 105 6510
-0.04275000 5.31024981 0.06850000 90 73 105 7410
-0.04275000 5.31125021 0.06950000 90 73 107 6914
-0.04275000 5.31024981 0.07050000 90 73 107 7628
-0.04275000 5.31225014 0.07350000 91 74 108 7528
-0.04275000 5.31099987 0.07450000 88 73 104 8128
-0.04275000 5.31199980 0.07550000 88 73 104 8246
-0.04275000 5.31250000 0.07650000 89 78 108 7732
-0.04275000 5.31225014 0.07750000 89 78 108 6996
-0.04275000 5.31250000 0.07950000 90 81 108 7239
-0.04275000 5.31300020 0.08150000 82 77 100 9550
-0.04275000 5.31274986 0.08350000 94 91 112 18157
-0.04275000 5.31274986 0.08550000 146 145 163 31453
-0.04275000 5.31225014 0.08650000 146 145 163 34589
-0.04275000 5.31300020 0.08750000 203 205 220 39246
-0.04275000 5.31300020 0.08850000 203 205 220 38910
-0.04275000 5.31250000 0.08950000 232 236 248 38914
-0.04275000 5.31325006 0.09050000 232 236 248 41214
-0.04275000 5.31225014 0.09250000 237 241 253 38250
-0.04275000 5.31225014 0.09350000 237 241 253 36110
-0.04275000 5.31274986 0.09450000 233 239 251 36546
-0.04275000 5.31225014 0.09550000 233 239 251 40303
-0.04275000 5.31274986 0.09650000 230 236 248 39078
-0.04275000 5.31274986 0.09750000 230 236 248 38742
-0.04275000 5.31400013 0.09950000 235 241 253 39235
-0.04275000 5.31300020 0.10050000 236 243 253 36542
-0.04275000 5.31374979 0.10250000 236 243 253 36389
-0.04275000 5.31349993 0.10350000 233 237 246 36389
-0.04275000 5.31300020 0.10550000 234 238 247 33182
-0.04275000 5.31325006 0.10750000 235 238 245 3932
-0.04175000 5.30649996 0.00800000 144 139 159 24039
-0.04175000 5.30725002 0.00900000 144 139 159 31274
-0.04175000 5.30649996 0.01000000 171 169 190 34117
-0.04175000 5.30775023 0.01100000 171 169 190 36007
-0.04175000 5.30725002 0.01200000 208 211 228 37350
-0.04175000 5.30700016 0.01300000 208 211 228 39475
-0.04175000 5.30674982 0.01400000 231 239 252 36746
-0.04175000 5.30700016 0.01500000 231 239 252 39650
-0.04175000 5.30775023 0.01700000 228 238 248 37814
-0.04175000 5.30775023 0.01800000 228 238 248 36589
-0.04175000 5.30775023 0.01900000 231 239 250 37657
-0.04175000 5.30700016 0.02000000 231 239 250 34896
-0.04175000 5.30700016 0.02100000 228 236 249 35035
-0.04175000 5.30749989 0.02400000 229 235 249 36296
-0.04175000 5.30749989 0.02700000 234 240 255 36439
-0.04175000 5.30775023 0.02800000 233 236 253 32392
-0.04175000 5.30900002 0.02900000 233 236 253 25739
-0.04175000 5.30800009 0.03100000 205 206 226 11539
-0.04175000 5.30875015 0.03300000 153 151 172 7821
-0.04175000 5.30775023 0.03400000 109 107 129 7721
-0.04175000 5.30950022 0.03500000 109 107 129 6710
-0.04175000 5.30875015 0.03600000 109 107 129 7192
-0.04175000 5.30849981 0.03900000 82 77 100 8003
-0.04175000 5.30975008 0.04200000 83 75 99 7232
-0.04175000 5.30975008 0.04300000 90 80 104 7603
-0.04175000 5.30900002 0.04400000 90 80 104 8110
-0.04175000 5.30999994 0.04500000 90 78 102 7785
-0.04175000 5.31050014 0.04600000 90 78 102 7207
-0.04175000 5.30900002 0.04700000 90 78 102 6892
-0.04175000 5.30975008 0.04800000 88 74 97 7485
-0.04175000 5.30999994 0.05000000 91 77 100 8178
-0.04175000 5.30924988 0.05100000 91 77 100 7585
-0.04175000 5.30900002 0.05200000 93 80 100 7178
-0.04175000 5.30999994 0.05300000 93 80 100 6753
-0.04175000 5.30950022 0.05400000 93 80 97 6214
-0.04175000 5.30975008 0.05500000 93 80 97 5842
-0.04175000 5.31125021 0.05600000 92 79 96 6139
-0.04175000 5.31075001 0.05700000 92 79 96 5967
-0.04175000 5.31075001 0.05900000 93 78 97 5189
-0.04175000 5.31075001 0.06000000 93 78 97 5375
-0.04175000 5.31024981 0.06100000 92 77 98 4971
-0.04175000 5.31174994 0.06500000 92 73 101 7421
-0.04175000 5.31150007 0.06600000 92 73 101 7596
-0.04175000 5.31024981 0.06700000 92 73 101 7664
-0.04175000 5.31174994 0.06800000 92 73 103 6917
-0.04175000 5.31050014 0.06900000 92 73 103 6560
-0.04175000 5.31099987 0.07000000 91 72 104 7135
-0.04175000 5.31125021 0.07100000 91 72 104 7453
-0.04175000 5.31199980 0.07200000 96 77 109 7253
-0.04175000 5.31125021 0.07400000 83 66 98 7099
-0.04175000 5.31099987 0.07500000 83 66 98 7332
-0.04175000 5.31225014 0.07825000 86 71 102 6810
-0.04175000 5.31174994 0.07925000 97 84 112 7000
-0.04175000 5.31099987 0.08000000 97 84 112 6457
-0.04175000 5.31300020 0.08225000 87 78 105 8839
-0.04175000 5.31174994 0.08325000 77 72 95 11328
-0.04175000 5.31199980 0.08525000 105 100 123 21910
-0.04175000 5.31250000 0.08625000 105 100 123 27192
-0.04175000 5.31250000 0.08725000 147 145 166 32242
-0.04175000 5.31250000 0.08825000 147 145 166 35967
-0.04175000 5.31300020 0.09025000 193 196 213 38910
-0.04175000 5.31274986 0.09125000 193 196 213 38246
-0.04175000 5.31225014 0.09225000 220 226 242 37000
-0.04175000 5.31274986 0.09425000 233 239 253 36396
-0.04175000 5.31300020 0.09525000 233 239 253 39417
-0.04175000 5.31300020 0.09625000 229 235 249 41407
-0.04175000 5.31250000 0.09725000 229 235 249 38746
-0.04175000 5.31374979 0.09825000 229 235 249 39932
-0.04175000 5.31300020 0.09925000 232 238 252 40296
-0.04175000 5.31300020 0.10025000 232 238 252 37764
-0.04175000 5.31325006 0.10225000 233 239 251 33428
-0.04175000 5.31400013 0.10325000 232 236 247 34575
-0.04175000 5.31374979 0.10425000 232 236 247 37135
-0.04175000 5.31400013 0.10525000 234 237 246 33057
-0.04175000 5.31400013 0.10625000 234 237 246 21482
-0.04075000 5.30700016 0.00850000 144 139 159 21882
-0.04075000 5.30775023 0.00950000 144 139 159 31164
-0.04075000 5.30674982 0.01050000 171 169 190 32285
-0.04075000 5.30700016 0.01150000 171 169 190 35175
-0.04075000 5.30725002 0.01250000 208 211 228 38628
-0.04075000 5.30674982 0.01350000 208 211 228 39300
-0.04075000 5.30775023 0.01450000 231 239 252 36296
-0.04075000 5.30824995 0.01850000 228 238 248 37971
-0.04075000 5.30674982 0.01950000 231 239 250 37510
-0.04075000 5.30749989 0.02250000 228 236 249 36442
-0.04075000 5.30775023 0.02350000 229 235 249 35028
-0.04075000 5.30800009 0.02450000 229 235 249 35717
-0.04075000 5.30800009 0.02550000 234 240 255 36150
-0.04075000 5.30800009 0.02850000 233 236 253 22592
-0.04075000 5.30849981 0.02950000 233 236 253 17278
-0.04075000 5.30849981 0.03050000 205 206 226 11307
-0.04075000 5.30824995 0.03150000 205 206 226 9032
-0.04075000 5.30775023 0.03350000 153 151 172 7650
-0.04075000 5.30924988 0.03450000 109 107 129 7460
-0.04075000 5.30849981 0.03650000 93 89 112 6767
-0.04075000 5.30875015 0.03750000 93 89 112 7607
-0.04075000 5.30849981 0.03850000 82 77 100 7575
-0.04075000 5.30975008 0.04050000 82 77 100 8335
-0.04075000 5.30875015 0.04350000 90 80 104 7014
-0.04075000 5.30975008 0.04550000 90 78 102 8292
-0.04075000 5.30999994 0.04650000 90 78 102 7603
-0.04075000 5.30950022 0.04750000 88 74 97 7046
-0.04075000 5.31075001 0.04850000 88 74 97 7453
-0.04075000 5.30950022 0.05250000 93 80 100 6992
-0.04075000 5.31050014 0.05450000 93 80 97 5992
-0.04075000 5.31075001 0.05550000 93 80 97 5589
-0.04075000 5.31050014 0.05650000 92 79 96 5285
-0.04075000 5.31099987 0.05750000 92 79 96 5096
-0.04075000 5.31024981 0.05850000 93 78 97 5207
-0.04075000 5.31099987 0.06150000 92 77 98 6078
-0.04075000 5.31099987 0.06250000 92 77 98 6489
-0.04075000 5.31075001 0.06350000 93 75 101 7878
-0.04075000 5.31150007 0.06450000 93 75 101 8446
-0.04075000 5.31099987 0.06550000 92 73 101 7932
-0.04075000 5.31150007 0.06750000 92 73 103 7021
-0.04075000 5.31199980 0.06950000 91 72 104 6432
-0.04075000 5.31199980 0.07050000 91 72 104 7289
-0.04075000 5.31174994 0.07150000 91 72 104 7764
-0.04075000 5.31174994 0.07350000 96 77 109 6146
-0.04075000 5.31225014 0.07450000 83 66 98 7289
-0.04075000 5.31125021 0.07550000 83 66 98 6996
-0.04075000 5.31274986 0.07650000 86 71 102 7210
-0.04075000 5.31174994 0.07750000 86 71 102 7149
-0.04075000 5.31250000 0.07850000 97 84 112 7096
-0.04075000 5.31274986 0.07950000 97 84 112 7060
-0.04075000 5.31199980 0.08050000 87 78 105 6978
-0.04075000 5.31225014 0.08250000 87 78 105 7796
-0.04075000 5.31199980 0.08350000 77 72 95 9014
-0.04075000 5.31150007 0.08450000 77 72 95 11471
-0.04075000 5.31300020 0.08550000 105 100 123 16653
-0.04075000 5.31325006 0.08650000 105 100 123 23200
-0.04075000 5.31274986 0.08750000 147 145 166 29496
-0.04075000 5.31199980 0.08850000 147 145 166 34071
-0.04075000 5.31325006 0.08950000 193 196 213 37296
-0.04075000 5.31274986 0.09050000 193 196 213 37146
-0.04075000 5.31250000 0.09150000 193 196 213 37932
-0.04075000 5.31250000 0.09350000 220 226 242 36696
-0.04075000 5.31225014 0.09650000 229 235 249 36550
-0.04075000 5.31300020 0.09750000 229 235 249 36842
-0.04075000 5.31274986 0.09850000 232 238 252 37767
-0.04075000 5.31300020 0.09950000 232 238 252 37453
-0.04075000 5.31300020 0.10050000 233 239 251 37925
-0.04075000 5.31449986 0.10250000 233 239 251 36092
-0.04075000 5.31325006 0.10350000 232 236 247 34185
-0.04075000 5.31400013 0.10550000 234 237 246 21692
-0.04075000 5.31374979 0.10650000 234 237 246 3903
-0.03950000 5.30800009 0.00900000 144 139 159 11821
-0.03950000 5.30674982 0.01000000 171 169 190 28699
-0.03950000 5.30674982 0.01100000 171 169 190 32992
-0.03950000 5.30625010 0.01200000 208 211 228 35457
-0.03950000 5.30749989 0.01400000 231 239 252 35307
-0.03950000 5.30649996 0.01500000 231 239 252 35178
-0.03950000 5.30674982 0.01600000 231 239 252 36014
-0.03950000 5.30725002 0.01800000 228 238 248 34110
-0.03950000 5.30749989 0.02100000 228 236 249 34896
-0.03950000 5.30725002 0.02300000 229 235 249 33475
-0.03950000 5.30725002 0.02400000 229 235 249 32867
-0.03950000 5.30749989 0.02600000 234 240 255 31492
-0.03950000 5.30749989 0.02700000 234 240 255 25174
-0.03975000 5.30924988 0.02900000 233 236 253 12042
-0.03975000 5.30849981 0.03000000 205 206 226 8853
-0.03975000 5.30824995 0.03100000 205 206 226 8489
-0.03975000 5.30924988 0.03200000 153 151 172 8503
-0.03975000 5.30924988 0.03300000 153 151 172 8671
-0.03975000 5.30924988 0.03400000 109 107 129 8314
-0.03975000 5.30950022 0.03500000 109 107 129 8078
-0.03975000 5.30875015 0.03700000 93 89 112 7450
-0.03975000 5.30824995 0.03800000 93 89 112 6971
-0.03975000 5.30900002 0.04200000 83 75 99 6789
-0.03975000 5.30900002 0.04300000 90 80 104 6842
-0.03975000 5.30875015 0.04400000 90 80 104 7689
-0.03975000 5.30875015 0.04600000 90 78 102 8157
-0.03975000 5.30875015 0.04700000 90 78 102 6992
-0.03975000 5.31024981 0.04800000 88 74 97 7092
-0.03975000 5.31050014 0.05000000 91 77 100 6789
-0.03975000 5.31024981 0.05200000 93 80 100 7357
-0.03975000 5.30950022 0.05300000 93 80 100 6782
-0.03975000 5.31024981 0.05500000 93 80 97 5992
-0.03975000 5.30950022 0.05600000 92 79 96 5403
-0.03975000 5.31024981 0.05800000 92 79 96 4907
-0.03975000 5.31050014 0.05900000 93 78 97 6092
-0.03975000 5.31050014 0.06100000 92 77 98 7064
-0.03975000 5.31150007 0.06200000 92 77 98 7535
-0.03975000 5.31150007 0.06300000 93 75 101 7839
-0.03975000 5.30999994 0.06400000 93 75 101 7778
-0.03975000 5.31199980 0.06500000 92 73 101 7457
-0.03975000 5.31099987 0.06600000 92 73 101 7014
-0.03975000 5.31174994 0.06800000 92 73 103 6792
-0.03975000 5.31099987 0.06900000 92 73 103 7139
-0.03975000 5.31075001 0.07100000 91 72 104 7550
-0.03975000 5.31199980 0.07200000 96 77 109 7800
-0.03975000 5.31274986 0.07525000 83 66 98 7467
-0.03975000 5.31199980 0.07625000 86 71 102 7239
-0.03975000 5.31150007 0.07725000 86 71 102 7182
-0.03975000 5.31150007 0.07800000 86 71 102 6617
-0.03975000 5.31150007 0.07900000 97 84 112 6875
-0.03975000 5.31174994 0.08125000 87 78 105 7353
-0.03975000 5.31250000 0.08325000 77 72 95 6832
-0.03975000 5.31250000 0.08525000 105 100 123 11307
-0.03975000 5.31250000 0.08625000 105 100 123 16289
-0.03975000 5.31300020 0.08725000 147 145 166 22792
-0.03975000 5.31250000 0.08825000 147 145 166 28660
-0.03975000 5.31374979 0.08925000 147 145 166 33675
-0.03975000 5.31325006 0.09025000 193 196 213 37139
-0.03975000 5.31374979 0.09125000 193 196 213 37450
-0.03975000 5.31225014 0.09225000 220 226 242 36850
-0.03975000 5.31274986 0.09425000 233 239 253 37767
-0.03975000 5.31300020 0.09525000 233 239 253 37925
-0.03975000 5.31250000 0.09625000 229 235 249 36696
-0.03975000 5.31300020 0.09725000 229 235 249 37610
-0.03975000 5.31424999 0.09825000 229 235 249 36239
-0.03975000 5.31400013 0.09925000 232 238 252 36985
-0.03975000 5.31325006 0.10025000 232 238 252 37925
-0.03975000 5.31349993 0.10225000 233 239 251 36539
-0.03975000 5.31374979 0.10325000 232 236 247 34710
-0.03975000 5.31300020 0.10525000 234 237 246 18121
-0.03975000 5.31325006 0.10625000 234 237 246 8153
-0.03850000 5.30700016 0.01350000 191 192 212 33728
-0.03850000 5.30674982 0.01650000 222 230 243 34371
-0.03850000 5.30725002 0.01750000 222 230 243 33228
-0.03850000 5.30749989 0.01850000 222 230 243 34235
-0.03875000 5.30849981 0.02050000 231 239 252 39121
-0.03875000 5.30824995 0.02150000 224 230 244 36735
-0.03875000 5.30800009 0.02350000 228 234 250 35028
-0.03875000 5.30849981 0.02450000 228 234 250 34492
-0.03850000 5.30749989 0.02550000 237 240 255 28785
-0.03875000 5.30800009 0.02750000 214 215 235 18671
-0.03875000 5.30849981 0.02850000 214 215 235 11653
-0.03875000 5.30900002 0.03250000 111 109 131 9925
-0.03875000 5.30900002 0.03350000 111 109 131 9003
-0.03875000 5.30849981 0.03450000 91 87 110 8210
-0.03875000 5.30975008 0.03550000 91 87 110 7982
-0.03875000 5.30950022 0.03650000 93 88 111 8360
-0.03875000 5.30975008 0.03750000 93 88 111 8328
-0.03875000 5.30849981 0.04150000 87 77 102 6478
-0.03875000 5.30875015 0.04250000 87 77 102 6478
-0.03875000 5.30924988 0.04350000 97 85 109 6932
-0.03875000 5.30950022 0.04550000 94 80 103 7028
-0.03875000 5.30900002 0.04750000 89 75 98 8007
-0.03875000 5.31075001 0.04850000 89 75 98 7817
-0.03875000 5.30924988 0.04950000 89 75 98 7064
-0.03875000 5.30950022 0.05150000 91 76 99 8475
-0.03875000 5.31050014 0.05450000 93 80 97 6278
-0.03875000 5.30950022 0.05550000 93 80 97 5832
-0.03875000 5.31075001 0.06150000 93 78 99 7296
-0.03875000 5.31075001 0.06450000 94 76 100 6614
-0.03875000 5.31050014 0.06550000 93 75 101 6660
-0.03875000 5.31174994 0.06650000 93 75 101 7403
-0.03875000 5.31150007 0.06850000 91 72 100 7414
-0.03875000 5.31075001 0.06950000 91 72 102 7517
-0.03875000 5.31150007 0.07150000 91 72 102 6967
-0.03875000 5.31174994 0.07350000 96 77 107 6935
-0.03875000 5.31174994 0.07550000 91 72 104 6900
-0.03875000 5.31174994 0.07650000 90 73 105 6775
-0.03875000 5.31225014 0.07750000 90 73 105 6735
-0.03875000 5.31225014 0.08050000 93 83 110 6892
-0.03875000 5.31225014 0.08150000 93 83 110 7850
-0.03875000 5.31325006 0.08450000 87 78 105 8175
-0.03875000 5.31325006 0.08550000 89 81 105 9839
-0.03875000 5.31325006 0.08650000 89 81 105 13285
-0.03875000 5.31325006 0.08750000 93 89 112 17903
-0.03875000 5.31374979 0.08850000 93 89 112 25353
-0.03875000 5.31374979 0.09050000 147 148 169 37450
-0.03875000 5.31250000 0.09150000 147 148 169 36696
-0.03875000 5.31225014 0.09250000 196 201 220 35682
-0.03875000 5.31349993 0.09350000 196 201 220 37921
-0.03875000 5.31374979 0.09450000 230 235 254 39760
-0.03875000 5.31424999 0.09550000 230 235 254 39407
-0.03875000 5.31300020 0.09650000 231 237 253 36692
-0.03875000 5.31349993 0.09750000 231 237 253 36246
-0.03875000 5.31374979 0.09850000 233 239 253 38567
-0.03875000 5.31374979 0.09950000 233 239 253 38082
-0.03875000 5.31424999 0.10050000 234 238 250 37442
-0.03875000 5.31349993 0.10250000 234 238 250 35957
-0.03875000 5.31374979 0.10450000 229 233 242 17517
-0.03875000 5.31349993 0.10550000 230 233 240 2417
-0.03775000 5.30749989 0.01200000 191 192 212 32989
-0.03775000 5.30775023 0.01500000 228 234 250 34760
-0.03775000 5.30700016 0.01600000 228 234 250 37046
-0.03775000 5.30674982 0.01700000 222 230 243 36303
-0.03775000 5.30824995 0.01800000 222 230 243 35028
-0.03775000 5.30700016 0.01900000 231 239 252 36157
-0.03775000 5.30725002 0.02000000 231 239 252 36892
-0.03775000 5.30824995 0.02100000 224 230 244 38132
-0.03775000 5.30824995 0.02200000 224 230 244 37035
-0.03775000 5.30824995 0.02300000 228 234 250 36003
-0.03775000 5.30824995 0.02400000 228 234 250 31267
-0.03775000 5.30875015 0.02500000 228 234 250 25167
-0.03775000 5.30875015 0.02600000 237 240 255 19728
-0.03775000 5.30900002 0.02700000 237 240 255 13325
-0.03775000 5.30749989 0.02800000 214 215 235 9532
-0.03775000 5.30849981 0.02900000 214 215 235 7582
-0.03775000 5.30800009 0.03000000 161 159 180 7450
-0.03775000 5.30775023 0.03100000 161 159 180 7967
-0.03775000 5.30875015 0.03200000 111 109 131 8785
-0.03775000 5.30849981 0.03300000 111 109 131 8578
-0.03775000 5.30875015 0.03400000 91 87 110 7978
-0.03775000 5.30875015 0.03600000 91 87 110 7307
-0.03775000 5.30950022 0.03700000 93 88 111 8071
-0.03775000 5.30875015 0.03800000 93 88 111 7310
-0.03775000 5.30875015 0.03900000 85 77 101 7253
-0.03775000 5.30875015 0.04000000 85 77 101 7032
-0.03775000 5.31024981 0.04100000 87 77 102 7017
-0.03775000 5.30849981 0.04200000 87 77 102 6442
-0.03775000 5.30900002 0.04300000 97 85 109 6939
-0.03775000 5.30999994 0.04400000 97 85 109 6950
-0.03775000 5.30924988 0.04500000 94 80 103 6635
-0.03775000 5.30999994 0.04800000 89 75 98 7575
-0.03775000 5.31099987 0.05200000 93 78 99 6642
-0.03775000 5.30999994 0.05300000 93 78 99 6496
-0.03775000 5.30975008 0.05400000 93 80 97 6646
-0.03775000 5.31075001 0.05500000 93 80 97 6050
-0.03775000 5.30999994 0.05600000 93 80 97 5342
-0.03775000 5.30999994 0.05700000 93 80 97 5375
-0.03775000 5.31075001 0.05800000 93 80 97 6128
-0.03775000 5.30999994 0.06000000 93 78 97 6817
-0.03775000 5.31024981 0.06300000 94 76 100 6878
-0.03775000 5.31150007 0.06400000 94 76 100 7582
-0.03775000 5.31099987 0.06700000 93 75 101 6935
-0.03775000 5.31125021 0.06900000 91 72 100 7914
-0.03775000 5.31250000 0.07025000 91 72 102 7282
-0.03775000 5.31250000 0.07225000 96 77 107 7124
-0.03775000 5.31150007 0.07300000 96 77 107 7174
-0.03775000 5.31174994 0.07400000 91 72 104 6671
-0.03775000 5.31274986 0.07525000 91 72 104 6953
-0.03775000 5.31250000 0.07725000 90 73 105 7335
-0.03775000 5.31250000 0.07825000 90 73 105 6832
-0.03775000 5.31300020 0.08025000 95 80 111 6610
-0.03775000 5.31174994 0.08125000 93 83 110 7182
-0.03775000 5.31250000 0.08425000 87 78 105 7492
-0.03775000 5.31199980 0.08525000 89 81 105 8150
-0.03775000 5.31225014 0.08725000 93 89 112 11357
-0.03775000 5.31349993 0.08825000 93 89 112 16867
-0.03775000 5.31349993 0.09025000 147 148 169 32350
-0.03775000 5.31325006 0.09325000 196 201 220 35396
-0.03775000 5.31274986 0.09525000 230 235 254 35539
-0.03775000 5.31424999 0.09625000 231 237 253 35528
-0.03775000 5.31349993 0.09725000 231 237 253 36689
-0.03775000 5.31374979 0.09825000 231 237 253 37603
-0.03775000 5.31349993 0.09925000 233 239 253 35671
-0.03775000 5.31274986 0.10025000 233 239 253 36107
-0.03775000 5.31349993 0.10125000 234 238 250 36689
-0.03775000 5.31400013 0.10225000 234 238 250 36535
-0.03775000 5.31475019 0.10325000 229 233 242 26078
-0.03775000 5.31400013 0.10525000 230 233 240 5500
-0.03650000 5.30700016 0.01050000 133 128 148 15317
-0.03650000 5.30649996 0.01250000 160 158 179 32174
-0.03650000 5.30749989 0.01350000 160 158 179 35725
-0.03650000 5.30674982 0.01550000 200 203 220 34900
-0.03650000 5.30800009 0.01650000 237 240 255 36889
-0.03650000 5.30700016 0.01750000 237 240 255 38300
-0.03650000 5.30775023 0.01850000 237 240 255 37810
-0.03650000 5.30824995 0.01950000 226 229 244 35025
-0.03650000 5.30775023 0.02550000 210 211 229 15235
-0.03650000 5.30849981 0.02950000 160 161 181 7960
-0.03650000 5.30800009 0.03150000 109 107 129 7932
-0.03650000 5.30950022 0.03250000 85 81 106 8307
-0.03650000 5.30849981 0.03350000 85 81 106 8007
-0.03650000 5.30975008 0.03550000 86 80 106 7232
-0.03650000 5.30849981 0.03750000 88 79 106 7521
-0.03650000 5.30924988 0.03850000 88 78 105 6928
-0.03650000 5.30975008 0.03950000 88 78 105 8010
-0.03650000 5.30900002 0.04050000 88 78 105 8050
-0.03650000 5.30900002 0.04150000 87 77 102 7539
-0.03650000 5.31050014 0.04250000 87 77 102 7878
-0.03650000 5.31050014 0.04350000 90 77 103 7407
-0.03650000 5.30924988 0.04450000 90 77 103 6953
-0.03650000 5.30975008 0.04550000 93 79 104 7249
-0.03650000 5.30975008 0.04650000 93 79 104 8264
-0.03650000 5.30950022 0.04750000 94 80 103 7550
-0.03650000 5.31050014 0.04850000 94 80 103 7285
-0.03650000 5.31024981 0.04950000 94 80 103 6814
-0.03650000 5.31024981 0.05050000 94 79 100 6817
-0.03650000 5.31125021 0.05150000 94 79 100 6803
-0.03650000 5.31075001 0.05450000 92 79 96 6800
-0.03650000 5.31099987 0.05550000 92 79 96 6464
-0.03650000 5.31050014 0.05650000 92 79 96 5464
-0.03650000 5.31150007 0.05750000 92 79 96 5217
-0.03650000 5.31150007 0.05850000 93 78 97 5900
-0.03650000 5.31075001 0.05950000 93 78 97 6917
-0.03650000 5.31075001 0.06050000 93 78 97 6878
-0.03650000 5.31150007 0.06150000 92 77 98 7067
-0.03650000 5.31099987 0.06250000 92 77 98 7028
-0.03650000 5.31125021 0.06350000 93 75 99 7457
-0.03650000 5.31075001 0.06550000 93 75 101 7267
-0.03650000 5.31099987 0.06650000 93 75 101 6296
-0.03650000 5.31225014 0.06850000 93 73 101 7846
-0.03650000 5.31174994 0.06950000 93 72 103 7367
-0.03650000 5.31199980 0.07050000 93 72 103 6982
-0.03650000 5.31125021 0.07250000 95 76 106 6560
-0.03650000 5.31099987 0.07350000 95 76 106 6189
-0.03650000 5.31125021 0.07650000 92 76 105 7042
-0.03650000 5.31199980 0.07750000 92 76 105 6850
-0.03650000 5.31250000 0.07950000 90 75 104 6832
-0.03650000 5.31300020 0.08250000 89 76 104 7007
-0.03650000 5.31274986 0.08550000 90 80 107 7160
-0.03650000 5.31274986 0.08650000 90 80 107 7682
-0.03650000 5.31274986 0.08750000 89 83 109 9585
-0.03650000 5.31250000 0.08850000 89 83 109 12500
-0.03650000 5.31250000 0.08950000 100 98 122 17807
-0.03650000 5.31250000 0.09050000 100 98 122 24600
-0.03675000 5.31300020 0.09250000 135 137 158 33428
-0.03675000 5.31325006 0.09350000 135 137 158 34321
-0.03675000 5.31325006 0.09450000 191 194 213 35817
-0.03675000 5.31325006 0.09550000 191 194 213 35535
-0.03675000 5.31400013 0.09650000 229 232 249 36685
-0.03675000 5.31449986 0.09750000 229 232 249 37600
-0.03650000 5.31274986 0.09850000 237 240 255 38246
-0.03650000 5.31274986 0.09950000 237 240 255 37300
-0.03675000 5.31424999 0.10050000 234 238 250 36239
-0.03675000 5.31300020 0.10150000 234 238 250 33807
-0.03575000 5.30649996 0.01200000 160 158 179 27064
-0.03575000 5.30749989 0.01600000 200 203 220 33975
-0.03575000 5.30700016 0.01700000 237 240 255 35589
-0.03575000 5.30775023 0.01800000 237 240 255 37189
-0.03575000 5.30725002 0.02000000 226 229 244 35725
-0.03575000 5.30775023 0.02100000 231 234 249 35307
-0.03575000 5.30849981 0.02200000 231 234 249 34757
-0.03575000 5.30800009 0.02300000 231 234 251 27053
-0.03575000 5.30875015 0.02500000 231 234 251 10867
-0.03575000 5.30749989 0.02600000 210 211 229 8189
-0.03575000 5.30875015 0.02900000 160 161 181 8271
-0.03575000 5.30875015 0.03100000 109 107 129 7853
-0.03575000 5.30849981 0.03300000 85 81 106 7971
-0.03575000 5.30950022 0.03400000 86 80 106 8271
-0.03575000 5.30875015 0.03500000 86 80 106 7792
-0.03575000 5.30875015 0.03600000 86 80 106 7571
-0.03575000 5.30975008 0.03900000 88 78 105 8121
-0.03575000 5.30875015 0.04000000 88 78 105 8671
-0.03575000 5.30875015 0.04100000 87 77 102 8007
-0.03575000 5.31050014 0.04400000 90 77 103 7328
-0.03575000 5.31075001 0.04500000 93 79 104 7532
-0.03575000 5.30924988 0.04600000 93 79 104 8192
-0.03575000 5.30975008 0.04700000 93 79 104 8085
-0.03575000 5.30950022 0.04800000 94 80 103 7178
-0.03575000 5.31050014 0.04900000 94 80 103 6675
-0.03575000 5.30999994 0.05100000 94 79 100 6403
-0.03575000 5.31099987 0.05200000 93 78 97 7003
-0.03575000 5.30975008 0.05300000 93 78 97 7389
-0.03575000 5.31024981 0.05400000 92 79 96 7053
-0.03575000 5.31024981 0.05600000 92 79 96 6267
-0.03575000 5.31050014 0.05800000 92 79 96 6285
-0.03575000 5.31150007 0.05900000 93 78 97 6678
-0.03575000 5.31125021 0.06000000 93 78 97 7025
-0.03575000 5.31099987 0.06100000 92 77 98 7975
-0.03575000 5.31174994 0.06200000 92 77 98 7835
-0.03575000 5.31075001 0.06400000 93 75 99 6632
-0.03575000 5.31199980 0.06900000 93 73 101 7185
-0.03575000 5.31125021 0.07000000 93 72 103 7021
-0.03575000 5.31174994 0.07100000 93 72 103 6407
-0.03575000 5.31225014 0.07225000 95 76 106 6760
-0.03575000 5.31150007 0.07300000 95 76 106 6571
-0.03575000 5.31174994 0.07500000 95 76 106 7421
-0.03575000 5.31225014 0.07625000 92 76 105 7035
-0.03575000 5.31250000 0.08025000 90 75 104 7421
-0.03575000 5.31325006 0.08225000 89 76 104 7957
-0.03575000 5.31274986 0.08425000 89 79 106 7600
-0.03575000 5.31300020 0.08525000 90 80 107 6914
-0.03575000 5.31349993 0.08825000 89 83 109 8632
-0.03575000 5.31325006 0.08925000 89 83 109 11767
-0.03575000 5.31250000 0.09025000 100 98 122 15614
-0.03575000 5.31300020 0.09225000 135 137 158 28296
-0.03575000 5.31300020 0.09325000 135 137 158 32946
-0.03575000 5.31400013 0.09425000 191 194 213 34978
-0.03575000 5.31300020 0.09525000 191 194 213 34064
-0.03575000 5.31325006 0.09625000 229 232 249 35396
-0.03575000 5.31400013 0.09725000 229 232 249 36535
-0.03575000 5.31400013 0.09825000 229 232 249 36385
-0.03575000 5.31274986 0.09925000 237 240 255 36692
-0.03575000 5.31400013 0.10025000 237 240 255 36535
-0.03575000 5.31424999 0.10125000 234 238 250 31553
-0.03575000 5.31325006 0.10225000 234 238 250 21085
-0.03575000 5.31374979 0.10325000 226 229 238 12585
-0.03575000 5.31400013 0.10425000 226 229 238 4260
-0.03475000 5.30725002 0.01250000 144 141 160 21517
-0.03475000 5.30700016 0.01350000 144 141 160 27900
-0.03475000 5.30700016 0.01650000 210 212 227 35450
-0.03475000 5.30749989 0.01750000 210 212 227 35446
-0.03475000 5.30824995 0.02350000 215 214 230 17410
-0.03475000 5.30824995 0.02450000 215 214 230 10900
-0.03475000 5.30749989 0.02550000 160 159 177 7692
-0.03475000 5.30849981 0.02650000 160 159 177 6978
-0.03475000 5.30950022 0.02750000 111 108 129 7496
-0.03475000 5.30775023 0.02850000 111 108 129 7846
-0.03475000 5.30924988 0.02950000 111 108 129 8017
-0.03475000 5.30900002 0.03050000 91 87 110 7796
-0.03475000 5.30924988 0.03150000 91 87 110 7903
-0.03475000 5.30824995 0.03250000 88 82 108 7878
-0.03475000 5.30875015 0.03350000 88 82 108 7671
-0.03475000 5.31024981 0.03650000 88 78 105 7274
-0.03475000 5.30875015 0.03850000 87 77 104 7228
-0.03475000 5.30924988 0.03950000 87 77 104 7775
-0.03475000 5.30999994 0.04150000 88 75 101 7335
-0.03475000 5.30900002 0.04250000 88 75 101 8039
-0.03475000 5.31050014 0.04750000 93 80 100 7296
-0.03475000 5.31050014 0.04850000 93 80 100 7321
-0.03475000 5.31075001 0.04950000 93 80 98 6375
-0.03475000 5.31024981 0.05050000 93 80 98 6217
-0.03475000 5.31099987 0.05250000 92 79 97 6764
-0.03475000 5.31075001 0.05350000 92 79 97 6800
-0.03475000 5.31075001 0.05450000 91 78 96 6360
-0.03475000 5.31099987 0.05550000 91 78 96 6475
-0.03475000 5.31050014 0.05650000 91 78 96 6896
-0.03475000 5.31099987 0.05850000 91 78 96 6525
-0.03475000 5.31174994 0.05950000 91 78 96 6821
-0.03475000 5.31075001 0.06050000 91 78 96 7817
-0.03475000 5.31150007 0.06150000 91 76 97 8271
-0.03475000 5.31024981 0.06250000 91 76 97 8117
-0.03475000 5.31075001 0.06350000 91 76 99 7074
-0.03475000 5.31199980 0.06450000 91 76 99 6539
-0.03475000 5.31099987 0.06750000 93 75 101 7375
-0.03475000 5.31174994 0.06850000 93 75 101 7667
-0.03475000 5.31075001 0.07050000 94 74 102 6985
-0.03475000 5.31150007 0.07150000 94 74 102 6925
-0.03475000 5.31250000 0.07350000 94 75 103 7107
-0.03475000 5.31150007 0.07550000 94 75 105 7732
-0.03475000 5.31225014 0.07650000 91 75 104 7085
-0.03475000 5.31250000 0.07850000 90 75 104 7096
-0.03475000 5.31250000 0.08050000 90 77 105 7124
-0.03475000 5.31300020 0.08250000 90 77 105 8175
-0.03475000 5.31325006 0.08550000 90 80 107 6875
-0.03475000 5.31325006 0.08650000 90 80 107 7025
-0.03475000 5.31225014 0.08850000 89 80 107 7582
-0.03475000 5.31349993 0.08950000 93 89 114 9753
-0.03475000 5.31349993 0.09150000 93 89 114 18682
-0.03475000 5.31349993 0.09250000 107 108 129 25492
-0.03475000 5.31400013 0.09350000 107 108 129 30285
-0.03475000 5.31325006 0.09450000 146 147 167 34582
-0.03475000 5.31349993 0.09550000 146 147 167 35396
-0.03475000 5.31349993 0.09850000 226 228 241 34846
-0.03475000 5.31449986 0.10050000 236 238 250 30282
-0.03375000 5.30800009 0.01300000 144 141 160 10757
-0.03375000 5.30674982 0.01400000 178 179 197 27985
-0.03375000 5.30749989 0.01600000 178 179 197 39296
-0.03375000 5.30725002 0.01700000 210 212 227 42039
-0.03375000 5.30849981 0.01900000 233 232 246 37035
-0.03375000 5.30725002 0.02000000 233 232 246 34500
-0.03375000 5.30775023 0.02200000 238 237 251 19307
-0.03375000 5.30849981 0.02300000 215 214 230 14224
-0.03375000 5.30924988 0.02400000 215 214 230 10807
-0.03375000 5.30775023 0.02600000 160 159 177 7489
-0.03375000 5.30775023 0.02700000 160 159 177 7771
-0.03375000 5.30824995 0.02800000 111 108 129 7528
-0.03375000 5.30875015 0.02900000 111 108 129 7425
-0.03375000 5.30849981 0.03000000 91 87 110 6503
-0.03375000 5.30975008 0.03100000 91 87 110 6975
-0.03375000 5.30924988 0.03200000 88 82 108 8042
-0.03375000 5.30999994 0.03400000 86 77 104 7796
-0.03375000 5.30950022 0.03500000 86 77 104 6782
-0.03375000 5.30924988 0.03600000 86 77 104 7803
-0.03375000 5.30849981 0.03700000 88 78 105 7714
-0.03375000 5.30849981 0.03800000 88 78 105 7192
-0.03375000 5.30950022 0.03900000 87 77 104 6857
-0.03375000 5.30950022 0.04000000 87 77 104 6425
-0.03375000 5.30950022 0.04100000 88 75 101 6967
-0.03375000 5.30875015 0.04200000 88 75 101 7810
-0.03375000 5.30975008 0.04500000 92 78 101 6585
-0.03375000 5.31024981 0.04700000 92 78 101 7557
-0.03375000 5.30950022 0.04800000 93 80 100 7371
-0.03375000 5.30950022 0.04900000 93 80 100 7285
-0.03375000 5.30950022 0.05000000 93 80 98 7210
-0.03375000 5.30975008 0.05100000 93 80 98 6375
-0.03375000 5.31075001 0.05500000 91 78 96 5767
-0.03375000 5.30999994 0.05700000 91 78 96 6250
-0.03375000 5.31125021 0.05900000 91 78 96 6678
-0.03375000 5.31024981 0.06000000 91 78 96 6178
-0.03375000 5.31075001 0.06100000 91 76 97 6307
-0.03375000 5.31199980 0.06200000 91 76 97 6792
-0.03375000 5.31099987 0.06300000 91 76 99 6985
-0.03375000 5.31099987 0.06400000 91 76 99 7314
-0.03375000 5.31050014 0.06600000 93 75 101 6939
-0.03375000 5.31099987 0.06800000 93 75 101 7625
-0.03375000 5.31199980 0.07100000 94 74 102 6996
-0.03375000 5.31225014 0.07200000 94 75 103 7707
-0.03375000 5.31300020 0.07625000 91 75 104 6928
-0.03375000 5.31174994 0.07700000 91 75 104 7121
-0.03375000 5.31325006 0.07825000 91 75 104 7114
-0.03375000 5.31199980 0.07925000 90 75 104 6821
-0.03375000 5.31199980 0.08125000 90 77 105 7635
-0.03375000 5.31325006 0.08325000 91 78 106 7339
-0.03375000 5.31325006 0.08525000 90 80 107 6489
-0.03375000 5.31325006 0.08725000 89 80 107 7321
-0.03375000 5.31250000 0.08825000 89 80 107 7228
-0.03375000 5.31325006 0.09025000 93 89 114 10382
-0.03375000 5.31400013 0.09125000 93 89 114 12532
-0.03375000 5.31325006 0.09225000 107 108 129 16528
-0.03375000 5.31300020 0.09325000 107 108 129 23689
-0.03375000 5.31400013 0.09425000 146 147 167 30385
-0.03375000 5.31349993 0.09625000 193 194 212 34185
-0.03275000 5.30875015 0.01350000 132 128 145 15364
-0.03275000 5.30824995 0.01450000 162 161 177 23653
-0.03275000 5.30749989 0.01650000 191 190 204 33228
-0.03275000 5.30749989 0.01750000 191 190 204 34110
-0.03275000 5.30824995 0.02050000 221 219 230 22878
-0.03275000 5.30924988 0.02350000 166 162 176 9321
-0.03275000 5.30775023 0.02450000 166 162 176 8214
-0.03275000 5.30950022 0.02650000 112 108 123 7010
-0.03275000 5.30824995 0.02750000 82 77 97 7121
-0.03275000 5.30849981 0.02950000 82 77 97 7564
-0.03275000 5.30875015 0.03050000 85 77 100 7253
-0.03275000 5.30824995 0.03150000 85 77 100 6625
-0.03275000 5.30950022 0.03450000 87 77 104 7867
-0.03275000 5.30924988 0.03550000 87 77 104 7810
-0.03275000 5.30849981 0.03650000 86 75 105 7589
-0.03275000 5.30999994 0.04350000 88 75 101 7557
-0.03275000 5.31050014 0.04450000 88 75 101 7639
-0.03275000 5.30999994 0.04550000 91 79 103 7189
-0.03275000 5.31099987 0.04650000 91 79 103 7535
-0.03275000 5.31050014 0.04750000 92 80 102 7057
-0.03275000 5.31099987 0.04850000 92 80 102 7500
-0.03275000 5.30975008 0.04950000 92 80 102 7725
-0.03275000 5.31050014 0.05150000 92 80 100 6846
-0.03275000 5.31099987 0.05250000 91 80 97 6517
-0.03275000 5.31075001 0.05450000 88 76 96 7124
-0.03275000 5.31099987 0.05650000 88 76 96 6042
-0.03275000 5.31125021 0.05850000 88 76 96 6332
-0.03275000 5.31199980 0.06250000 90 76 99 6457
-0.03275000 5.31125021 0.06350000 91 76 99 7314
-0.03275000 5.31174994 0.06450000 91 76 99 7607
-0.03275000 5.31075001 0.06550000 93 75 101 6792
-0.03275000 5.31250000 0.06650000 93 75 101 6414
-0.03275000 5.31125021 0.06950000 93 74 102 7714
-0.03275000 5.31225014 0.07150000 93 74 102 6946
-0.03275000 5.31174994 0.07250000 92 73 101 7264
-0.03275000 5.31150007 0.07350000 92 73 101 7121
-0.03275000 5.31300020 0.07450000 92 73 101 6557
-0.03275000 5.31199980 0.07550000 92 73 101 6642
-0.03275000 5.31274986 0.07750000 91 75 102 6903
-0.03275000 5.31199980 0.07850000 92 76 103 6139
-0.03275000 5.31199980 0.08050000 92 78 104 6760
-0.03275000 5.31199980 0.08150000 92 78 104 7396
-0.03275000 5.31225014 0.08350000 91 78 104 7199
-0.03275000 5.31300020 0.08450000 91 78 104 6364
-0.03275000 5.31349993 0.08550000 88 78 103 6046
-0.03275000 5.31274986 0.08750000 87 79 103 6371
-0.03275000 5.31400013 0.08850000 87 79 103 6903
-0.03275000 5.31349993 0.08950000 88 83 106 7592
-0.03275000 5.31424999 0.09050000 88 83 106 7757
-0.03275000 5.31325006 0.09150000 88 83 106 9082
-0.03275000 5.31250000 0.09250000 84 81 102 12146
-0.03275000 5.31400013 0.09350000 84 81 102 18489
-0.03275000 5.31300020 0.09450000 102 99 118 24932
-0.03275000 5.31374979 0.09550000 102 99 118 31450
-0.03275000 5.31374979 0.09750000 144 143 159 34982
-0.03275000 5.31400013 0.09850000 190 190 202 31774
-0.03175000 5.30800009 0.01400000 162 161 177 13485
-0.03175000 5.30725002 0.01500000 162 161 177 20264
-0.03175000 5.30775023 0.01600000 162 161 177 25971
-0.03175000 5.30824995 0.01700000 191 190 204 29728
-0.03175000 5.30749989 0.01800000 191 190 204 30025
-0.03175000 5.30800009 0.02200000 207 204 215 9839
-0.03175000 5.30824995 0.02300000 166 162 176 8596
-0.03175000 5.30849981 0.02400000 166 162 176 7564
-0.03175000 5.30824995 0.02700000 112 108 123 7235
-0.03175000 5.30975008 0.02800000 82 77 97 6992
-0.03175000 5.30924988 0.02900000 82 77 97 8264
-0.03175000 5.30824995 0.03100000 85 77 100 6450
-0.03175000 5.30849981 0.03200000 89 81 105 6600
-0.03175000 5.30999994 0.03300000 89 81 105 6646
-0.03175000 5.30950022 0.03600000 87 77 104 7767
-0.03175000 5.30999994 0.03700000 86 75 105 7310
-0.03175000 5.30900002 0.03800000 86 75 105 6882
-0.03175000 5.30924988 0.03900000 85 75 102 6357
-0.03175000 5.30875015 0.04000000 85 75 102 5932
-0.03175000 5.30999994 0.04200000 87 74 100 7867
-0.03175000 5.30975008 0.04300000 88 75 101 7132
-0.03175000 5.30950022 0.04400000 88 75 101 6682
-0.03175000 5.31024981 0.04500000 91 79 103 6982
-0.03175000 5.31075001 0.04600000 91 79 103 7460
-0.03175000 5.30999994 0.04700000 91 79 103 7246
-0.03175000 5.30999994 0.04800000 92 80 102 7382
-0.03175000 5.30999994 0.04900000 92 80 102 7671
-0.03175000 5.30999994 0.05000000 92 80 100 8010
-0.03175000 5.30950022 0.05100000 92 80 100 7214
-0.03175000 5.30975008 0.05400000 88 76 96 7414
-0.03175000 5.31150007 0.05500000 88 76 96 6553
-0.03175000 5.31075001 0.05600000 88 76 96 5953
-0.03175000 5.31099987 0.05700000 88 76 96 6392
-0.03175000 5.31050014 0.06000000 88 76 96 5800
-0.03175000 5.31125021 0.06100000 90 76 99 6014
-0.03175000 5.31099987 0.06200000 90 76 99 7121
-0.03175000 5.31174994 0.06300000 91 76 99 7978
-0.03175000 5.31174994 0.06400000 91 76 99 8082
-0.03175000 5.31099987 0.06500000 93 75 101 7489
-0.03175000 5.31099987 0.06800000 93 75 101 7032
-0.03175000 5.31250000 0.06900000 93 75 101 7367
-0.03175000 5.31125021 0.07000000 93 74 102 6800
-0.03175000 5.31199980 0.07100000 93 74 102 6557
-0.03175000 5.31174994 0.07200000 92 73 101 6482
-0.03175000 5.31250000 0.07325000 92 73 101 7017
-0.03175000 5.31150007 0.07425000 92 73 101 6407
-0.03175000 5.31300020 0.07625000 91 75 102 6246
-0.03175000 5.31274986 0.07725000 91 75 102 6532
-0.03175000 5.31199980 0.07800000 91 75 102 6671
-0.03175000 5.31300020 0.08125000 92 78 104 7000
-0.03175000 5.31225014 0.08425000 91 78 104 7407
-0.03175000 5.31349993 0.08525000 88 78 103 6521
-0.03175000 5.31374979 0.08725000 87 79 103 6867
-0.03175000 5.31300020 0.08825000 87 79 103 6939
-0.03175000 5.31400013 0.08925000 87 79 103 6717
-0.03175000 5.31274986 0.09025000 88 83 106 6435
-0.03175000 5.31325006 0.09325000 84 81 102 11671
-0.03175000 5.31400013 0.09425000 102 99 118 16253
-0.03175000 5.31475019 0.09625000 144 143 159 26460
-0.03175000 5.31449986 0.09725000 144 143 159 29107
-0.03175000 5.31449986 0.09825000 144 143 159 25203
-0.03175000 5.31500006 0.10025000 190 190 202 9375
-0.03050000 5.30674982 0.00850000 107 95 107 1196
-0.03050000 5.30849981 0.01450000 141 139 153 8014
-0.03050000 5.30749989 0.01550000 141 139 153 14714
-0.03050000 5.30849981 0.01650000 171 167 181 21985
-0.03050000 5.30749989 0.01850000 171 167 181 22260
-0.03050000 5.30775023 0.02150000 154 147 155 9417
-0.03050000 5.30800009 0.02250000 154 147 155 8885
-0.03050000 5.30875015 0.02350000 114 106 117 8410
-0.03050000 5.30824995 0.02550000 97 89 104 8039
-0.03050000 5.30824995 0.02650000 97 89 104 7685
-0.03050000 5.30975008 0.03050000 91 82 103 7149
-0.03050000 5.30900002 0.03150000 91 82 103 7582
-0.03050000 5.30999994 0.03450000 87 77 104 8053
-0.03050000 5.31050014 0.03650000 85 75 102 7782
-0.03050000 5.31050014 0.03750000 85 75 102 8435
-0.03050000 5.30999994 0.03850000 84 74 101 8528
-0.03050000 5.31024981 0.04050000 84 74 101 8378
-0.03050000 5.30999994 0.04250000 86 73 99 7700
-0.03050000 5.30999994 0.04350000 88 76 100 7096
-0.03075000 5.31075001 0.04450000 88 76 100 7746
-0.03075000 5.31099987 0.04550000 90 78 100 7771
-0.03050000 5.30924988 0.04650000 90 78 100 7850
-0.03075000 5.31125021 0.04750000 90 81 100 7685
-0.03075000 5.31099987 0.04850000 90 81 100 7296
-0.03050000 5.31050014 0.04950000 90 81 98 7003
-0.03075000 5.31075001 0.05050000 90 81 98 6567
-0.03050000 5.30999994 0.05150000 90 81 98 7178
-0.03075000 5.31075001 0.05250000 89 80 99 7825
-0.03050000 5.31075001 0.05350000 89 80 99 7753
-0.03050000 5.30999994 0.05450000 85 76 97 6867
-0.03075000 5.31150007 0.05650000 85 75 99 6689
-0.03075000 5.31174994 0.05750000 85 75 99 6742
-0.03050000 5.31099987 0.05850000 85 75 99 6446
-0.03075000 5.31125021 0.05950000 85 75 99 5985
-0.03075000 5.31199980 0.06150000 88 76 100 6971
-0.03075000 5.31150007 0.06350000 89 75 100 8082
-0.03075000 5.31150007 0.06450000 89 75 100 8046
-0.03075000 5.31150007 0.06650000 91 75 101 6635
-0.03075000 5.31225014 0.07050000 94 76 102 6796
-0.03075000 5.31250000 0.07350000 90 72 98 6953
-0.03075000 5.31150007 0.07450000 90 74 100 7007
-0.03075000 5.31250000 0.07650000 91 75 101 6792
-0.03075000 5.31250000 0.07850000 92 78 103 7025
-0.03075000 5.31250000 0.07950000 92 78 103 6678
-0.03075000 5.31274986 0.08250000 91 79 103 7575
-0.03075000 5.31274986 0.08350000 90 78 102 7425
-0.03075000 5.31225014 0.08450000 90 78 102 7203
-0.03075000 5.31250000 0.08650000 87 77 101 7299
-0.03075000 5.31400013 0.08750000 87 77 101 6860
-0.03075000 5.31250000 0.08850000 87 77 101 6617
-0.03075000 5.31325006 0.08950000 89 81 104 6450
-0.03075000 5.31274986 0.09050000 89 81 104 6503
-0.03075000 5.31325006 0.09150000 89 81 104 6496
-0.03075000 5.31424999 0.09250000 81 76 96 7489
-0.03075000 5.31424999 0.09350000 81 76 96 9775
-0.03075000 5.31424999 0.09450000 88 84 101 11014
-0.03075000 5.31300020 0.09550000 88 84 101 14371
-0.03075000 5.31325006 0.09650000 110 106 120 18567
-0.03075000 5.31475019 0.09750000 110 106 120 17828
-0.02950000 5.30924988 0.01800000 171 167 181 15985
-0.02950000 5.30849981 0.01900000 191 186 193 11221
-0.02950000 5.30849981 0.02000000 191 186 193 8835
-0.02950000 5.30875015 0.02100000 154 147 155 8882
-0.02950000 5.30849981 0.02200000 154 147 155 9321
-0.02950000 5.30924988 0.02300000 114 106 117 9517
-0.02950000 5.30900002 0.02500000 114 106 117 7546
-0.02950000 5.30975008 0.02700000 97 89 104 8425
-0.02950000 5.30900002 0.02800000 95 86 103 8553
-0.02950000 5.30999994 0.02900000 95 86 103 7975
-0.02950000 5.30999994 0.03100000 91 82 103 8132
-0.02950000 5.30875015 0.03300000 87 77 102 7882
-0.02950000 5.30924988 0.03400000 87 77 104 8192
-0.02950000 5.30950022 0.03500000 87 77 104 7964
-0.02950000 5.30924988 0.03700000 85 75 102 7839
-0.02950000 5.30950022 0.03800000 85 75 102 7964
-0.02950000 5.31024981 0.03900000 84 74 101 8035
-0.02950000 5.30950022 0.04000000 84 74 101 7485
-0.02950000 5.30900002 0.04100000 86 73 99 8235
-0.02950000 5.30924988 0.04300000 88 76 100 7960
-0.02950000 5.31075001 0.04400000 88 76 100 8532
-0.02950000 5.30999994 0.04500000 90 78 100 8617
-0.02950000 5.30975008 0.04700000 90 78 100 8078
-0.02950000 5.31024981 0.04800000 90 81 100 7575
-0.02950000 5.30999994 0.04900000 90 81 100 7221
-0.02950000 5.30999994 0.05000000 90 81 98 6514
-0.02950000 5.30975008 0.05100000 90 81 98 6500
-0.02950000 5.31099987 0.05200000 89 80 99 6950
-0.02950000 5.30999994 0.05300000 89 80 99 6632
-0.02950000 5.31099987 0.05500000 85 76 97 6650
-0.02950000 5.31125021 0.05600000 85 75 99 7410
-0.02950000 5.31174994 0.05700000 85 75 99 7932
-0.02950000 5.31150007 0.05800000 85 75 99 7542
-0.02950000 5.31199980 0.05900000 85 75 99 6439
-0.02950000 5.31150007 0.06100000 88 76 100 7207
-0.02950000 5.31125021 0.06200000 88 76 100 6617
-0.02950000 5.31199980 0.06300000 89 75 100 6467
-0.02950000 5.31225014 0.06400000 89 75 100 6750
-0.02950000 5.31075001 0.06500000 91 75 101 7332
-0.02950000 5.31075001 0.06600000 91 75 101 6428
-0.02950000 5.31225014 0.06800000 92 76 102 6246
-0.02950000 5.31099987 0.07000000 94 76 102 6217
-0.02950000 5.31174994 0.07525000 90 74 100 6546
-0.02950000 5.31199980 0.07625000 91 75 101 6664
-0.02950000 5.31274986 0.07725000 91 75 101 6432
-0.02950000 5.31174994 0.07900000 92 78 103 6217
-0.02975000 5.31300020 0.08025000 92 78 103 5842
-0.02950000 5.31250000 0.08125000 91 79 103 6310
-0.02975000 5.31349993 0.08225000 91 79 103 7867
-0.02950000 5.31250000 0.08325000 90 78 102 7996
-0.02975000 5.31349993 0.08425000 90 78 102 7321
-0.02950000 5.31225014 0.08525000 87 77 101 7060
-0.02975000 5.31325006 0.08725000 87 77 101 6875
-0.02975000 5.31325006 0.08825000 87 77 101 6675
-0.02975000 5.31274986 0.08925000 87 77 101 6300
-0.02975000 5.31424999 0.09125000 89 81 104 6632
-0.02975000 5.31400013 0.09225000 81 76 96 7089
-0.02975000 5.31325006 0.09325000 81 76 96 7407
-0.02975000 5.31475019 0.09525000 88 84 101 9689
-0.02975000 5.31475019 0.09825000 110 106 120 8985
-0.02850000 5.30824995 0.01850000 171 167 181 7950
-0.02850000 5.30800009 0.02150000 154 147 155 8039
-0.02850000 5.30800009 0.02250000 154 147 155 9017
-0.02850000 5.30950022 0.02350000 114 106 117 8760
-0.02850000 5.30900002 0.02450000 114 106 117 7478
