//X Y Z R G B Intensity
-0.12250000 5.30550003 0.06875000 88 77 94 7182
-0.12250000 5.30474997 0.06975000 88 77 94 7142
-0.12250000 5.30574989 0.07175000 89 78 94 6728
-0.12250000 5.30625010 0.07275000 92 84 95 6635
-0.12250000 5.30674982 0.07575000 90 83 91 7492
-0.12150000 5.30324984 0.03525000 102 95 103 6567
-0.12150000 5.30399990 0.03725000 105 95 104 9142
-0.12150000 5.30249977 0.03825000 105 95 104 8285
-0.12150000 5.30324984 0.03925000 105 95 104 7782
-0.12150000 5.30399990 0.04025000 89 77 87 8614
-0.12150000 5.30350018 0.04125000 89 77 87 8210
-0.12150000 5.30474997 0.04825000 92 78 95 7903
-0.12150000 5.30450010 0.04925000 92 78 95 7425
-0.12150000 5.30424976 0.05025000 92 78 95 7660
-0.12150000 5.30450010 0.05125000 93 78 97 8407
-0.12150000 5.30525017 0.05225000 93 78 97 8275
-0.12150000 5.30474997 0.05425000 95 80 99 7628
-0.12150000 5.30499983 0.05525000 97 82 103 6871
-0.12150000 5.30525017 0.05725000 94 79 102 8246
-0.12150000 5.30499983 0.05925000 94 79 102 8642
-0.12150000 5.30499983 0.06025000 91 77 100 7428
-0.12150000 5.30550003 0.06225000 92 78 101 7178
-0.12150000 5.30574989 0.06525000 96 83 103 8575
-0.12150000 5.30525017 0.06925000 94 83 100 7199
-0.12150000 5.30600023 0.07025000 94 83 100 7596
-0.12150000 5.30674982 0.07125000 89 78 94 7121
-0.12150000 5.30550003 0.07325000 92 84 97 6864
-0.12150000 5.30525017 0.07525000 88 80 91 7253
-0.12050000 5.30249977 0.03175000 150 145 152 4560
-0.12050000 5.30399990 0.03475000 122 117 124 6939
-0.12050000 5.30399990 0.03675000 102 95 103 9178
-0.12050000 5.30399990 0.03875000 105 95 104 8614
-0.12050000 5.30399990 0.04175000 86 74 86 7814
-0.12050000 5.30399990 0.04275000 86 74 86 7532
-0.12050000 5.30399990 0.04475000 94 82 96 8489
-0.12050000 5.30474997 0.04675000 96 82 99 9025
-0.12050000 5.30450010 0.05075000 93 78 97 7389
-0.12050000 5.30474997 0.05175000 93 78 97 7728
-0.12050000 5.30499983 0.05275000 95 80 99 7910
-0.12050000 5.30424976 0.05375000 95 80 99 7471
-0.12050000 5.30474997 0.05575000 97 82 103 7317
-0.12050000 5.30525017 0.05775000 94 79 102 8132
-0.12050000 5.30499983 0.05975000 91 77 100 7982
-0.12050000 5.30474997 0.06075000 91 77 100 7107
-0.12050000 5.30574989 0.06175000 92 78 101 6271
-0.12050000 5.30499983 0.06275000 92 78 101 5960
-0.12050000 5.30574989 0.06375000 92 78 101 6767
-0.12050000 5.30499983 0.06875000 94 83 100 8850
-0.12050000 5.30649996 0.06975000 94 83 100 7907
-0.12050000 5.30574989 0.07075000 89 78 94 7878
-0.12050000 5.30649996 0.07175000 89 78 94 7446
-0.12050000 5.30550003 0.07275000 92 84 97 7278
-0.12050000 5.30649996 0.07675000 88 80 91 8250
-0.12050000 5.30700016 0.07775000 91 84 92 8507
-0.12050000 5.30574989 0.07875000 91 84 92 7853
-0.12050000 5.30674982 0.07975000 90 85 91 7000
-0.11950000 5.30350018 0.03125000 112 105 113 6125
-0.11950000 5.30324984 0.03325000 100 90 101 8200
-0.11950000 5.30375004 0.03625000 94 82 96 8007
-0.11950000 5.30424976 0.03825000 95 81 96 8985
-0.11950000 5.30375004 0.04225000 90 75 94 8200
-0.11950000 5.30350018 0.04625000 92 79 99 9114
-0.11950000 5.30450010 0.04725000 92 79 99 9475
-0.11950000 5.30550003 0.05325000 87 75 97 8221
-0.11950000 5.30550003 0.05425000 87 75 97 7796
-0.11950000 5.30600023 0.06025000 90 78 100 7907
-0.11950000 5.30600023 0.06525000 92 80 102 7614
-0.11950000 5.30550003 0.06625000 91 79 99 7778
-0.11950000 5.30499983 0.06825000 90 78 98 8167
-0.11950000 5.30574989 0.06925000 90 78 98 7978
-0.11950000 5.30499983 0.07125000 89 78 95 7578
-0.11950000 5.30674982 0.07225000 89 78 95 7432
-0.11950000 5.30674982 0.07325000 91 80 97 8175
-0.11950000 5.30600023 0.07425000 91 80 97 7492
-0.11950000 5.30700016 0.07625000 92 81 98 6803
-0.11950000 5.30674982 0.07725000 93 82 98 6753
-0.11850000 5.30324984 0.02975000 138 133 140 7282
-0.11850000 5.30350018 0.03075000 112 105 113 7503
-0.11850000 5.30350018 0.03175000 112 105 113 7739
-0.11850000 5.30324984 0.03975000 92 78 95 7925
-0.11850000 5.30450010 0.04075000 92 78 95 8917
-0.11850000 5.30450010 0.04175000 90 75 94 9139
-0.11850000 5.30350018 0.04275000 90 75 94 8657
-0.11850000 5.30299997 0.04375000 90 75 94 7521
-0.11850000 5.30399990 0.04575000 91 76 95 8014
-0.11850000 5.30450010 0.04675000 92 79 99 8353
-0.11850000 5.30399990 0.04775000 92 79 99 8528
-0.11850000 5.30424976 0.04875000 93 79 102 8300
-0.11850000 5.30525017 0.04975000 93 79 102 8582
-0.11850000 5.30375004 0.05275000 87 75 97 7478
-0.11850000 5.30550003 0.05375000 87 75 97 7721
-0.11850000 5.30574989 0.05575000 87 75 97 8692
-0.11850000 5.30550003 0.05775000 88 76 98 7392
-0.11850000 5.30499983 0.05975000 90 78 100 8239
-0.11850000 5.30600023 0.06275000 91 79 101 6882
-0.11850000 5.30625010 0.06375000 91 79 101 7078
-0.11850000 5.30600023 0.06575000 92 80 102 8189
-0.11850000 5.30574989 0.06675000 91 79 99 9078
-0.11850000 5.30649996 0.06775000 91 79 99 8664
-0.11850000 5.30649996 0.06875000 90 78 98 8178
-0.11850000 5.30625010 0.07175000 89 78 95 8085
-0.11850000 5.30674982 0.07275000 91 80 97 8082
-0.11850000 5.30574989 0.07375000 91 80 97 7775
-0.11850000 5.30700016 0.07475000 91 80 97 7803
-0.11850000 5.30700016 0.07775000 93 82 98 6575
-0.11850000 5.30725002 0.07875000 93 82 98 7496
-0.11850000 5.30625010 0.07975000 93 82 96 7960
-0.11850000 5.30749989 0.08075000 93 82 96 7264
-0.11850000 5.30775023 0.08175000 94 83 97 6021
-0.11750000 5.30350018 0.02825000 134 133 139 7696
-0.11750000 5.30299997 0.03025000 108 103 110 8796
-0.11750000 5.30350018 0.03125000 96 88 99 8082
-0.11750000 5.30350018 0.03325000 95 84 98 7396
-0.11750000 5.30375004 0.03525000 96 83 100 7589
-0.11750000 5.30424976 0.03925000 93 78 97 8671
-0.11750000 5.30375004 0.04025000 92 77 96 8667
-0.11750000 5.30350018 0.04125000 92 77 96 8139
-0.11750000 5.30399990 0.04225000 91 76 97 8307
-0.11750000 5.30399990 0.04325000 91 76 97 8907
-0.11750000 5.30450010 0.04525000 90 76 99 8485
-0.11750000 5.30375004 0.04625000 91 77 100 7667
-0.11750000 5.30424976 0.04825000 90 78 102 7585
-0.11750000 5.30525017 0.04925000 90 78 102 8946
-0.11750000 5.30424976 0.05025000 90 78 102 9482
-0.11750000 5.30399990 0.05125000 87 77 101 8535
-0.11750000 5.30499983 0.05225000 87 77 101 7753
-0.11750000 5.30525017 0.05625000 86 77 98 8135
-0.11750000 5.30499983 0.05925000 87 78 99 8239
-0.11750000 5.30550003 0.06025000 88 79 100 8778
-0.11750000 5.30625010 0.06125000 88 79 100 8339
-0.11750000 5.30625010 0.06225000 89 80 101 8771
-0.11750000 5.30625010 0.06925000 91 79 99 7657
-0.11750000 5.30700016 0.07325000 91 79 99 8492
-0.11750000 5.30625010 0.07425000 91 79 99 7439
-0.11750000 5.30700016 0.07525000 92 80 100 7032
-0.11750000 5.30700016 0.07725000 93 82 99 7503
-0.11750000 5.30674982 0.08125000 93 82 99 7289
-0.11750000 5.30700016 0.08625000 97 84 102 6821
-0.11750000 5.30725002 0.08725000 97 84 102 5392
-0.11650000 5.30249977 0.02675000 134 133 139 6971
-0.11650000 5.30375004 0.02875000 108 103 110 9557
-0.11650000 5.30375004 0.02975000 108 103 110 8853
-0.11650000 5.30324984 0.03075000 96 88 99 8632
-0.11650000 5.30399990 0.03475000 95 84 98 6992
-0.11650000 5.30399990 0.03575000 96 83 100 6425
-0.11650000 5.30375004 0.03775000 93 78 97 7778
-0.11650000 5.30350018 0.03875000 93 78 97 8517
-0.11650000 5.30350018 0.04075000 92 77 96 7360
-0.11650000 5.30424976 0.04175000 91 76 97 6557
-0.11650000 5.30450010 0.04275000 91 76 97 7371
-0.11650000 5.30474997 0.04475000 90 76 99 8210
-0.11650000 5.30474997 0.04675000 91 77 100 6907
-0.11650000 5.30525017 0.04875000 90 78 102 7357
-0.11650000 5.30399990 0.04975000 90 78 102 8632
-0.11650000 5.30375004 0.05075000 87 77 101 8032
-0.11650000 5.30474997 0.05175000 87 77 101 8228
-0.11650000 5.30550003 0.05275000 86 76 100 8478
-0.11650000 5.30525017 0.05375000 86 76 100 9057
-0.11650000 5.30574989 0.05475000 86 76 100 8689
-0.11650000 5.30450010 0.05575000 86 77 98 8085
-0.11650000 5.30499983 0.05975000 88 79 100 7592
-0.11650000 5.30600023 0.06075000 88 79 100 8453
-0.11650000 5.30600023 0.06275000 89 80 101 8789
-0.11650000 5.30574989 0.06375000 89 80 101 8167
-0.11650000 5.30550003 0.06475000 89 80 101 7760
-0.11650000 5.30600023 0.06575000 89 80 101 8178
-0.11650000 5.30550003 0.06675000 89 80 101 8585
-0.11650000 5.30649996 0.06975000 91 79 99 8596
-0.11650000 5.30700016 0.07175000 90 78 98 9507
-0.11650000 5.30550003 0.07275000 91 79 99 9289
-0.11650000 5.30674982 0.07775000 93 82 99 7967
-0.11650000 5.30700016 0.07975000 93 82 99 7503
-0.11650000 5.30725002 0.08175000 93 80 98 6675
-0.11650000 5.30625010 0.08275000 93 80 98 6371
-0.11650000 5.30800009 0.08375000 95 82 100 6489
-0.11650000 5.30800009 0.08775000 97 84 102 6371
-0.11550000 5.30299997 0.02525000 119 119 127 6792
-0.11550000 5.30249977 0.02825000 97 96 104 8785
-0.11550000 5.30324984 0.02925000 87 84 93 8939
-0.11550000 5.30375004 0.03125000 88 80 93 8217
-0.11550000 5.30350018 0.03325000 92 81 97 7535
-0.11550000 5.30399990 0.03425000 92 81 97 7103
-0.11550000 5.30450010 0.03925000 91 76 95 8017
-0.11550000 5.30350018 0.04025000 92 77 98 8285
-0.11550000 5.30424976 0.04425000 91 77 100 9182
-0.11550000 5.30474997 0.04525000 91 77 100 9267
-0.11550000 5.30525017 0.04825000 87 75 97 8010
-0.11550000 5.30525017 0.04925000 87 75 97 7932
-0.11550000 5.30574989 0.05325000 87 77 101 7975
-0.11550000 5.30550003 0.05425000 87 77 101 9042
-0.11550000 5.30424976 0.05525000 88 79 100 7707
-0.11550000 5.30525017 0.05625000 88 79 100 7710
-0.11550000 5.30499983 0.05725000 88 79 98 7778
-0.11550000 5.30600023 0.05825000 88 79 98 8128
-0.11550000 5.30574989 0.06325000 87 78 97 9264
-0.11550000 5.30674982 0.06725000 89 80 99 7714
-0.11550000 5.30649996 0.07025000 90 81 100 9107
-0.11550000 5.30700016 0.07125000 90 81 100 8835
-0.11550000 5.30625010 0.07225000 90 81 100 8428
-0.11550000 5.30649996 0.07525000 92 80 100 7278
-0.11550000 5.30700016 0.07825000 92 80 100 7703
-0.11550000 5.30775023 0.08550000 91 79 99 7099
-0.11550000 5.30800009 0.08750000 94 82 102 6903
-0.11550000 5.30800009 0.09025000 94 80 93 5128
-0.11450000 5.30224991 0.01375000 106 104 109 3239
-0.11450000 5.30275011 0.02275000 147 150 157 6300
-0.11450000 5.30350018 0.02375000 147 150 157 7367
-0.11450000 5.30249977 0.02475000 119 119 127 7271
-0.11450000 5.30299997 0.02575000 119 119 127 7103
-0.11450000 5.30350018 0.02775000 97 96 104 7653
-0.11450000 5.30375004 0.02975000 87 84 93 7325
-0.11450000 5.30350018 0.03075000 88 80 93 7060
-0.11450000 5.30399990 0.03175000 88 80 93 6975
-0.11450000 5.30299997 0.03275000 88 80 93 7410
-0.11450000 5.30399990 0.03475000 92 81 97 8164
-0.11450000 5.30424976 0.03575000 95 82 100 8510
-0.11450000 5.30324984 0.03675000 95 82 100 8160
-0.11450000 5.30424976 0.03875000 91 76 95 8057
-0.11450000 5.30450010 0.03975000 92 77 98 8510
-0.11450000 5.30474997 0.04175000 93 78 101 8839
-0.11450000 5.30399990 0.04275000 93 78 101 7875
-0.11450000 5.30350018 0.04375000 93 78 101 7950
-0.11450000 5.30499983 0.04475000 91 77 100 7860
-0.11450000 5.30525017 0.04575000 91 77 100 8707
-0.11450000 5.30499983 0.04775000 89 75 98 8246
-0.11450000 5.30550003 0.04975000 87 75 97 7746
-0.11450000 5.30525017 0.05075000 86 76 100 7260
-0.11450000 5.30499983 0.05175000 86 76 100 7124
-0.11450000 5.30499983 0.06175000 87 78 97 7807
-0.11450000 5.30550003 0.06375000 87 78 97 7814
-0.11450000 5.30574989 0.06475000 88 79 98 7921
-0.11450000 5.30649996 0.06575000 88 79 98 7792
-0.11450000 5.30550003 0.06775000 89 80 99 8382
-0.11450000 5.30574989 0.06875000 90 81 100 7778
-0.11450000 5.30674982 0.06975000 90 81 100 7414
-0.11450000 5.30649996 0.07075000 90 81 100 7746
-0.11450000 5.30550003 0.07175000 90 81 100 7332
-0.11450000 5.30725002 0.07575000 92 80 100 7907
-0.11450000 5.30749989 0.07775000 92 80 100 8225
-0.11450000 5.30649996 0.07875000 92 80 100 8717
-0.11450000 5.30775023 0.07975000 92 80 100 8017
-0.11450000 5.30649996 0.08175000 91 79 99 8339
-0.11450000 5.30725002 0.08475000 91 79 99 7689
-0.11450000 5.30775023 0.08575000 91 79 99 6603
-0.11450000 5.30775023 0.08875000 97 84 102 6857
-0.11350000 5.30275011 0.02125000 155 158 165 5782
-0.11350000 5.30200005 0.02225000 121 125 134 7814
-0.11350000 5.30175018 0.02325000 121 125 134 8521
-0.11350000 5.30299997 0.02425000 89 91 103 8503
-0.11350000 5.30299997 0.02525000 89 91 103 9160
-0.11350000 5.30324984 0.02725000 81 81 93 8796
-0.11350000 5.30200005 0.02825000 81 81 93 8971
-0.11350000 5.30399990 0.03025000 89 85 99 8392
-0.11350000 5.30424976 0.03425000 93 82 99 8167
-0.11350000 5.30424976 0.03725000 89 76 96 8164
-0.11350000 5.30324984 0.03825000 89 76 96 9310
-0.11350000 5.30324984 0.03925000 89 76 96 8532
-0.11350000 5.30424976 0.04025000 91 78 98 8810
-0.11350000 5.30499983 0.04325000 93 79 102 8414
-0.11350000 5.30375004 0.04525000 92 78 101 8285
-0.11350000 5.30450010 0.04625000 87 75 97 7942
-0.11350000 5.30424976 0.04725000 87 75 97 7832
-0.11350000 5.30474997 0.04925000 86 74 96 7207
-0.11350000 5.30474997 0.05125000 86 76 100 7285
-0.11350000 5.30499983 0.05325000 88 79 100 8103
-0.11350000 5.30474997 0.05425000 88 79 100 7414
-0.11350000 5.30600023 0.05525000 89 80 99 7224
-0.11350000 5.30525017 0.05625000 89 80 99 7896
-0.11350000 5.30450010 0.05725000 89 80 97 7928
-0.11350000 5.30499983 0.05825000 89 80 97 7207
-0.11350000 5.30574989 0.06125000 87 78 95 7985
-0.11350000 5.30574989 0.06425000 87 78 95 7796
-0.11350000 5.30625010 0.06725000 89 80 99 8650
-0.11350000 5.30525017 0.06825000 90 81 100 7885
-0.11350000 5.30550003 0.06925000 90 81 100 7092
-0.11350000 5.30700016 0.07125000 92 83 102 7299
-0.11350000 5.30574989 0.07325000 91 79 99 7253
-0.11350000 5.30674982 0.07525000 92 80 100 7632
-0.11350000 5.30775023 0.07725000 92 80 100 7450
-0.11350000 5.30674982 0.07925000 91 79 99 7446
-0.11350000 5.30824995 0.08450000 90 78 100 7778
-0.11350000 5.30800009 0.08550000 90 78 100 7174
-0.11350000 5.30824995 0.08750000 92 80 102 7753
-0.11350000 5.30749989 0.08825000 94 82 102 7203
-0.11350000 5.30824995 0.08925000 94 82 102 6992
-0.11350000 5.30824995 0.09025000 98 87 103 7514
-0.11350000 5.30749989 0.09125000 98 87 103 7335
-0.11350000 5.30849981 0.09350000 94 84 95 5267
-0.11250000 5.30299997 0.02475000 89 91 103 8821
-0.11250000 5.30224991 0.02575000 89 91 103 9300
-0.11250000 5.30275011 0.02675000 81 81 93 9042
-0.11250000 5.30375004 0.02775000 81 81 93 9435
-0.11250000 5.30399990 0.02875000 89 85 99 9946
-0.11250000 5.30275011 0.03075000 94 88 102 8542
-0.11250000 5.30275011 0.03175000 94 88 102 9007
-0.11250000 5.30424976 0.03375000 93 82 99 8396
-0.11250000 5.30350018 0.03575000 90 77 97 7714
-0.11250000 5.30450010 0.03675000 90 77 97 8132
-0.11250000 5.30450010 0.03875000 89 76 96 8632
-0.11250000 5.30499983 0.04075000 91 78 98 9357
-0.11250000 5.30474997 0.04375000 93 79 102 8017
-0.11250000 5.30375004 0.04475000 92 78 101 7900
-0.11250000 5.30424976 0.04575000 92 78 101 8007
-0.11250000 5.30550003 0.04875000 86 74 96 7778
-0.11250000 5.30550003 0.04975000 86 74 96 7385
-0.11250000 5.30474997 0.05075000 86 76 100 7339
-0.11250000 5.30474997 0.05175000 86 76 100 7010
-0.11250000 5.30525017 0.05475000 88 79 100 7207
-0.11250000 5.30574989 0.05575000 89 80 99 7603
-0.11250000 5.30424976 0.05675000 89 80 99 7592
-0.11250000 5.30550003 0.05775000 89 80 97 7099
-0.11250000 5.30550003 0.06175000 87 78 95 7425
-0.11250000 5.30649996 0.06375000 87 78 95 8110
-0.11250000 5.30649996 0.06575000 87 78 95 7782
-0.11250000 5.30649996 0.06675000 89 80 99 7800
-0.11250000 5.30625010 0.07075000 92 83 102 7146
-0.11250000 5.30700016 0.07675000 92 80 100 7389
-0.11250000 5.30674982 0.07875000 92 80 100 6539
-0.11250000 5.30775023 0.08075000 91 79 99 5817
-0.11250000 5.30775023 0.08375000 90 78 100 7928
-0.11250000 5.30800009 0.08575000 90 78 100 7064
-0.11250000 5.30674982 0.08775000 92 80 102 6567
-0.11250000 5.30849981 0.08975000 94 82 102 8250
-0.11250000 5.30700016 0.09175000 98 87 103 8092
-0.11250000 5.30849981 0.09275000 94 84 95 6871
-0.11150000 5.30224991 0.01925000 196 194 197 5700
-0.11150000 5.30224991 0.02025000 155 158 165 6960
-0.11150000 5.30350018 0.02125000 155 158 165 7935
-0.11150000 5.30324984 0.02325000 121 125 134 9007
-0.11150000 5.30350018 0.02425000 89 91 103 8303
-0.11150000 5.30249977 0.02525000 89 91 103 8503
-0.11150000 5.30399990 0.02825000 81 81 93 9825
-0.11150000 5.30299997 0.02925000 89 85 99 9421
-0.11150000 5.30399990 0.03225000 94 88 102 7592
-0.11150000 5.30375004 0.03325000 93 82 99 8225
-0.11150000 5.30375004 0.03425000 93 82 99 8517
-0.11150000 5.30350018 0.03625000 90 77 97 8332
-0.11150000 5.30324984 0.03725000 89 76 96 8242
-0.11150000 5.30474997 0.04025000 91 78 98 8642
-0.11150000 5.30350018 0.04225000 93 79 102 8932
-0.11150000 5.30424976 0.04425000 92 78 101 8150
-0.11150000 5.30550003 0.04925000 86 74 96 7857
-0.11150000 5.30450010 0.05025000 86 74 96 8132
-0.11150000 5.30499983 0.05225000 86 76 100 7521
-0.11150000 5.30499983 0.05425000 88 79 100 7921
-0.11150000 5.30550003 0.05625000 89 80 99 8042
-0.11150000 5.30625010 0.05725000 89 80 97 7878
-0.11150000 5.30499983 0.05925000 89 80 97 7771
-0.11150000 5.30600023 0.06025000 87 78 95 7632
-0.11150000 5.30649996 0.06225000 87 78 95 8303
-0.11150000 5.30649996 0.06625000 89 80 99 8435
-0.11150000 5.30600023 0.06825000 90 81 100 8225
-0.11150000 5.30725002 0.07025000 90 81 100 8225
-0.11150000 5.30674982 0.07125000 92 83 102 7896
-0.11150000 5.30700016 0.07225000 92 83 102 7367
-0.11150000 5.30700016 0.07625000 92 80 100 8242
-0.11150000 5.30725002 0.07725000 92 80 100 7292
-0.11150000 5.30775023 0.07825000 92 80 100 6564
-0.11150000 5.30749989 0.07925000 91 79 99 6167
-0.11150000 5.30775023 0.08025000 91 79 99 6300
-0.11150000 5.30824995 0.08925000 94 82 102 7564
-0.11150000 5.30875015 0.09050000 98 87 103 7675
-0.11150000 5.30749989 0.09125000 98 87 103 7946
-0.11150000 5.30800009 0.09225000 98 87 103 7089
-0.11150000 5.30775023 0.09325000 94 84 95 6346
-0.11150000 5.30849981 0.09450000 94 84 95 6550
-0.11050000 5.30175018 0.01675000 193 184 189 7892
-0.11050000 5.30249977 0.01975000 164 164 174 7925
-0.11050000 5.30350018 0.02075000 164 164 174 8100
-0.11050000 5.30249977 0.02375000 125 129 141 7685
-0.11050000 5.30375004 0.02475000 89 91 104 8271
-0.11050000 5.30275011 0.02675000 81 80 94 9925
-0.11050000 5.30350018 0.02875000 90 86 101 9796
-0.11050000 5.30350018 0.02975000 90 86 101 8092
-0.11050000 5.30375004 0.03175000 96 89 107 7925
-0.11050000 5.30399990 0.03375000 93 84 103 8303
-0.11050000 5.30450010 0.03575000 90 78 100 8032
-0.11050000 5.30499983 0.03975000 91 79 101 10050
-0.11050000 5.30375004 0.04275000 92 80 102 7721
-0.11050000 5.30350018 0.04375000 92 80 102 7553
-0.11050000 5.30499983 0.04475000 91 79 101 7221
-0.11050000 5.30550003 0.04675000 88 76 98 7257
-0.11050000 5.30550003 0.04875000 86 74 96 7789
-0.11050000 5.30550003 0.05075000 86 77 98 7207
-0.11050000 5.30600023 0.05175000 86 77 98 8010
-0.11050000 5.30499983 0.05475000 88 79 98 8360
-0.11050000 5.30600023 0.05575000 90 81 98 8707
-0.11050000 5.30625010 0.05675000 90 81 98 7703
-0.11050000 5.30525017 0.05775000 89 81 96 7407
-0.11050000 5.30574989 0.05975000 88 80 95 8185
-0.11050000 5.30674982 0.06175000 87 78 95 7775
-0.11050000 5.30600023 0.06375000 87 78 95 8507
-0.11050000 5.30625010 0.06475000 88 79 96 9239
-0.11050000 5.30625010 0.06575000 88 79 96 9592
-0.11050000 5.30550003 0.06675000 89 80 97 9414
-0.11050000 5.30574989 0.06775000 89 80 97 9325
-0.11050000 5.30700016 0.06875000 91 82 99 8085
-0.11050000 5.30674982 0.06975000 91 82 99 7842
-0.11050000 5.30700016 0.07175000 92 83 100 7503
-0.11050000 5.30625010 0.07375000 89 80 99 7607
-0.11050000 5.30700016 0.07575000 90 81 100 7907
-0.11050000 5.30749989 0.07675000 90 81 100 8050
-0.11050000 5.30749989 0.07875000 90 81 102 8157
-0.11050000 5.30725002 0.08075000 89 80 101 7517
-0.11050000 5.30824995 0.08275000 88 79 100 7317
-0.11050000 5.30800009 0.08375000 88 78 102 7042
-0.11050000 5.30800009 0.08675000 90 80 104 7114
-0.11050000 5.30749989 0.08875000 92 83 104 7528
-0.11050000 5.30824995 0.08975000 92 83 104 8364
-0.11050000 5.30800009 0.09275000 88 82 96 7435
-0.11050000 5.30849981 0.09375000 88 82 96 6753
-0.11050000 5.30849981 0.09475000 88 82 96 6500
-0.11050000 5.30875015 0.09575000 106 100 112 9382
-0.11050000 5.30900002 0.09675000 106 100 112 6817
-0.10950000 5.30275011 0.01725000 212 207 213 15278
-0.10950000 5.30324984 0.01925000 212 207 213 12371
-0.10950000 5.30224991 0.02325000 125 129 141 7553
-0.10950000 5.30350018 0.02625000 81 80 94 8871
-0.10950000 5.30399990 0.03025000 90 86 101 7403
-0.10950000 5.30399990 0.03125000 96 89 107 6635
-0.10950000 5.30324984 0.03425000 93 84 103 8021
-0.10950000 5.30375004 0.03625000 90 78 100 8625
-0.10950000 5.30299997 0.03725000 88 76 98 9246
-0.10950000 5.30450010 0.03825000 88 76 98 9553
-0.10950000 5.30375004 0.03925000 88 76 98 8853
-0.10950000 5.30474997 0.04125000 91 79 101 7810
-0.10950000 5.30499983 0.04225000 92 80 102 7207
-0.10950000 5.30525017 0.04325000 92 80 102 7364
-0.10950000 5.30525017 0.04425000 91 79 101 8007
-0.10950000 5.30550003 0.04625000 88 76 98 8285
-0.10950000 5.30525017 0.05025000 86 74 96 8385
-0.10950000 5.30525017 0.05125000 86 77 98 7885
-0.10950000 5.30525017 0.05225000 86 77 98 8478
-0.10950000 5.30600023 0.05325000 88 79 98 8771
-0.10950000 5.30525017 0.05425000 88 79 98 8239
-0.10950000 5.30474997 0.05525000 90 81 98 8060
-0.10950000 5.30649996 0.05925000 88 80 95 7675
-0.10950000 5.30574989 0.06025000 88 80 95 7889
-0.10950000 5.30674982 0.06125000 88 80 95 7642
-0.10950000 5.30600023 0.06325000 87 78 95 7660
-0.10950000 5.30649996 0.06425000 88 79 96 8728
-0.10950000 5.30625010 0.06525000 88 79 96 8753
-0.10950000 5.30674982 0.06625000 89 80 97 8453
-0.10950000 5.30700016 0.06725000 89 80 97 8942
-0.10950000 5.30674982 0.06825000 91 82 99 7907
-0.10950000 5.30674982 0.06925000 91 82 99 7367
-0.10950000 5.30625010 0.07025000 91 82 99 7789
-0.10950000 5.30775023 0.07925000 89 80 101 8660
-0.10950000 5.30700016 0.08025000 89 80 101 8189
-0.10950000 5.30674982 0.08125000 89 80 101 7710
-0.10950000 5.30749989 0.08225000 88 79 100 7246
-0.10950000 5.30725002 0.08450000 88 78 102 6928
-0.10950000 5.30775023 0.08525000 88 78 102 7246
-0.10950000 5.30725002 0.08725000 90 80 104 7575
-0.10950000 5.30800009 0.09025000 93 84 101 8760
-0.10950000 5.30775023 0.09125000 93 84 101 8360
-0.10950000 5.30875015 0.09450000 88 82 96 9028
-0.10950000 5.30875015 0.09550000 106 100 112 14928
-0.10950000 5.30824995 0.09725000 145 142 151 19550
-0.10850000 5.30124998 0.00975000 108 91 99 1792
-0.10850000 5.30249977 0.01575000 206 197 202 18417
-0.10850000 5.30324984 0.01775000 206 201 208 25124
-0.10850000 5.30324984 0.01875000 206 201 208 20007
-0.10850000 5.30324984 0.01975000 203 202 216 15121
-0.10850000 5.30200005 0.02075000 203 202 216 12939
-0.10850000 5.30375004 0.02375000 167 170 187 9717
-0.10850000 5.30324984 0.02875000 85 82 101 8164
-0.10850000 5.30399990 0.03075000 87 82 102 7892
-0.10850000 5.30450010 0.03475000 91 83 104 7325
-0.10850000 5.30450010 0.03575000 92 83 104 8078
-0.10850000 5.30450010 0.03675000 92 83 104 8553
-0.10850000 5.30499983 0.03875000 88 79 100 9453
-0.10850000 5.30450010 0.03975000 91 79 101 9121
-0.10850000 5.30525017 0.04175000 92 80 102 7842
-0.10850000 5.30550003 0.04375000 92 80 102 7707
-0.10850000 5.30450010 0.04675000 89 77 99 8992
-0.10850000 5.30550003 0.04875000 89 77 99 8064
-0.10850000 5.30499983 0.04975000 89 77 99 8553
-0.10850000 5.30550003 0.05175000 87 78 99 8600
-0.10850000 5.30550003 0.05375000 88 79 98 8239
-0.10850000 5.30525017 0.05475000 88 79 98 7842
-0.10850000 5.30600023 0.05575000 89 81 96 8064
-0.10850000 5.30600023 0.05675000 89 81 96 8357
-0.10850000 5.30600023 0.05975000 89 81 94 8435
-0.10850000 5.30525017 0.06075000 89 81 94 7657
-0.10850000 5.30625010 0.06175000 89 81 96 7267
-0.10850000 5.30600023 0.06275000 89 81 96 6900
-0.10850000 5.30700016 0.06375000 89 81 96 7810
-0.10850000 5.30550003 0.06575000 89 81 96 8407
-0.10850000 5.30574989 0.06675000 90 82 97 7710
-0.10850000 5.30674982 0.06875000 91 82 99 7067
-0.10850000 5.30649996 0.07075000 91 82 99 6650
-0.10850000 5.30649996 0.07375000 89 80 99 7650
-0.10850000 5.30824995 0.08075000 90 80 104 7825
-0.10850000 5.30824995 0.08175000 89 79 103 8214
-0.10850000 5.30800009 0.08275000 89 79 103 7867
-0.10850000 5.30775023 0.08375000 89 79 104 7160
-0.10850000 5.30700016 0.08675000 92 82 107 7557
-0.10850000 5.30749989 0.08775000 92 82 107 7978
-0.10850000 5.30700016 0.08875000 93 85 108 6617
-0.10850000 5.30775023 0.08975000 93 85 108 6982
-0.10850000 5.30824995 0.09175000 87 84 103 8521
-0.10850000 5.30924988 0.09275000 101 99 113 8596
-0.10850000 5.30800009 0.09375000 101 99 113 12460
-0.10850000 5.30900002 0.09475000 101 99 113 17989
-0.10850000 5.30900002 0.09575000 138 137 151 24342
-0.10850000 5.30900002 0.09675000 138 137 151 28135
-0.10850000 5.30900002 0.09775000 189 189 201 24946
-0.10750000 5.30299997 0.01425000 170 159 167 15378
-0.10750000 5.30224991 0.01525000 206 197 202 24314
-0.10750000 5.30299997 0.01625000 206 197 202 30975
-0.10750000 5.30299997 0.01725000 206 201 208 30978
-0.10750000 5.30200005 0.01925000 206 201 208 20796
-0.10750000 5.30324984 0.02025000 203 202 216 17257
-0.10750000 5.30324984 0.02125000 203 202 216 14310
-0.10750000 5.30375004 0.02325000 167 170 187 9485
-0.10750000 5.30299997 0.02625000 94 93 111 7846
-0.10750000 5.30474997 0.03325000 91 83 104 8385
-0.10750000 5.30450010 0.03525000 92 83 104 8367
-0.10750000 5.30474997 0.03625000 92 83 104 8060
-0.10750000 5.30474997 0.03825000 88 79 100 7875
-0.10750000 5.30399990 0.03925000 88 79 100 7828
-0.10750000 5.30499983 0.04125000 91 79 101 8510
-0.10750000 5.30474997 0.04225000 92 80 102 7832
-0.10750000 5.30375004 0.04325000 92 80 102 6432
-0.10750000 5.30499983 0.04525000 91 79 101 8121
-0.10750000 5.30525017 0.04725000 89 77 99 7407
-0.10750000 5.30474997 0.04825000 89 77 99 7339
-0.10750000 5.30600023 0.04925000 89 77 99 7446
-0.10750000 5.30474997 0.05125000 87 78 99 8217
-0.10750000 5.30499983 0.05225000 87 78 99 8500
-0.10750000 5.30600023 0.05325000 88 79 98 8242
-0.10750000 5.30625010 0.05425000 88 79 98 8839
-0.10750000 5.30550003 0.05525000 89 81 96 8678
-0.10750000 5.30499983 0.05725000 89 81 94 8810
-0.10750000 5.30649996 0.05925000 89 81 94 8514
-0.10750000 5.30574989 0.06025000 89 81 94 7910
-0.10750000 5.30700016 0.06425000 89 81 96 8428
-0.10750000 5.30625010 0.06525000 89 81 96 8525
-0.10750000 5.30649996 0.06625000 90 82 97 8735
-0.10750000 5.30649996 0.06725000 90 82 97 8364
-0.10750000 5.30725002 0.06925000 91 82 99 6732
-0.10750000 5.30674982 0.07125000 91 82 99 7060
-0.10750000 5.30700016 0.07225000 91 82 99 8157
-0.10750000 5.30649996 0.07325000 89 80 99 7932
-0.10750000 5.30700016 0.07425000 89 80 99 7289
-0.10750000 5.30775023 0.07925000 90 80 104 7160
-0.10750000 5.30775023 0.08125000 90 80 104 8053
-0.10750000 5.30700016 0.08225000 89 79 103 8475
-0.10750000 5.30800009 0.08350000 89 79 103 8125
-0.10750000 5.30800009 0.08650000 92 82 107 7478
-0.10750000 5.30725002 0.08825000 93 85 108 7582
-0.10750000 5.30900002 0.08950000 93 85 108 6757
-0.10750000 5.30900002 0.09250000 87 84 103 9528
-0.10750000 5.30924988 0.09350000 101 99 113 15489
-0.10750000 5.30849981 0.09425000 101 99 113 21453
-0.10750000 5.30900002 0.09550000 138 137 151 27785
-0.10750000 5.30800009 0.09625000 138 137 151 32150
-0.10750000 5.30775023 0.09725000 189 189 201 31696
-0.10750000 5.30900002 0.09850000 189 189 201 27785
-0.10750000 5.30900002 0.09950000 218 221 228 19632
-0.10750000 5.30900002 0.10050000 218 221 228 12367
-0.10650000 5.30324984 0.01275000 141 130 138 10510
-0.10650000 5.30249977 0.01375000 183 173 181 18496
-0.10650000 5.30275011 0.01475000 183 173 181 28175
-0.10650000 5.30200005 0.01675000 210 204 208 36475
-0.10650000 5.30249977 0.01775000 209 206 213 33628
-0.10650000 5.30299997 0.01875000 209 206 213 30453
-0.10650000 5.30249977 0.01975000 227 229 244 25057
-0.10650000 5.30375004 0.02075000 227 229 244 19078
-0.10650000 5.30275011 0.02175000 209 212 231 13357
-0.10650000 5.30399990 0.02575000 173 174 194 9214
-0.10650000 5.30399990 0.02675000 127 128 148 7857
-0.10650000 5.30375004 0.03375000 90 85 107 8775
-0.10650000 5.30399990 0.03575000 92 84 107 7835
-0.10650000 5.30399990 0.03675000 92 84 107 7778
-0.10650000 5.30450010 0.03775000 90 82 105 8017
-0.10650000 5.30399990 0.03875000 90 82 105 8553
-0.10650000 5.30450010 0.03975000 90 80 104 8396
-0.10650000 5.30550003 0.04175000 89 80 101 7964
-0.10650000 5.30450010 0.04275000 89 80 101 6989
-0.10650000 5.30474997 0.04375000 89 80 101 6596
-0.10650000 5.30574989 0.04575000 89 80 101 7675
-0.10650000 5.30450010 0.04675000 90 81 102 8067
-0.10650000 5.30525017 0.04775000 90 81 102 7410
-0.10650000 5.30525017 0.04975000 90 81 102 7035
-0.10650000 5.30450010 0.05175000 89 80 99 6385
-0.10650000 5.30574989 0.05375000 87 78 95 6660
-0.10650000 5.30574989 0.05675000 90 79 93 8714
-0.10650000 5.30525017 0.05775000 91 81 92 8732
-0.10650000 5.30550003 0.06075000 90 82 93 7814
-0.10650000 5.30550003 0.06275000 90 82 95 7178
-0.10650000 5.30674982 0.06475000 91 83 96 7078
-0.10650000 5.30674982 0.06575000 91 83 96 7564
-0.10650000 5.30700016 0.06675000 91 83 98 7049
-0.10650000 5.30749989 0.06775000 91 83 98 7235
-0.10650000 5.30674982 0.06875000 90 81 98 6564
-0.10650000 5.30749989 0.06975000 90 81 98 6060
-0.10650000 5.30749989 0.07075000 90 81 98 6839
-0.10650000 5.30725002 0.07375000 88 81 99 6996
-0.10650000 5.30674982 0.07775000 90 82 105 6485
-0.10650000 5.30749989 0.07875000 90 82 105 6953
-0.10650000 5.30749989 0.07975000 90 82 105 7528
-0.10650000 5.30725002 0.08075000 90 82 105 7457
-0.10650000 5.30824995 0.08175000 89 81 105 8178
-0.10650000 5.30700016 0.08275000 89 81 105 8457
-0.10650000 5.30800009 0.08375000 91 82 109 7807
-0.10650000 5.30700016 0.08475000 91 82 109 7389
-0.10650000 5.30725002 0.08575000 91 82 109 7664
-0.10650000 5.30775023 0.08675000 93 84 111 7678
-0.10650000 5.30849981 0.08775000 93 84 111 7292
-0.10650000 5.30775023 0.08875000 94 89 112 7582
-0.10650000 5.30875015 0.09075000 105 103 124 7946
-0.10650000 5.30950022 0.09375000 142 145 162 22807
-0.10650000 5.30875015 0.09475000 142 145 162 28585
-0.10650000 5.30924988 0.09575000 187 190 205 33328
-0.10650000 5.30875015 0.09675000 187 190 205 34742
-0.10650000 5.30824995 0.09775000 217 221 233 35428
-0.10650000 5.30975008 0.09875000 217 221 233 31246
-0.10650000 5.30975008 0.10075000 229 236 246 16660
-0.10550000 5.30200005 0.01225000 141 130 138 3889
-0.10550000 5.30175018 0.01325000 183 173 181 18803
-0.10550000 5.30224991 0.01525000 210 204 208 33257
-0.10550000 5.30324984 0.01625000 210 204 208 35471
-0.10550000 5.30175018 0.01725000 209 206 213 35067
-0.10550000 5.30249977 0.01825000 209 206 213 34925
-0.10550000 5.30324984 0.01925000 209 206 213 33378
-0.10550000 5.30200005 0.02025000 227 229 244 29560
-0.10550000 5.30350018 0.02125000 227 229 244 21582
-0.10550000 5.30275011 0.02225000 209 212 231 15621
-0.10550000 5.30324984 0.02425000 173 174 194 10217
-0.10550000 5.30249977 0.02525000 173 174 194 9264
-0.10550000 5.30399990 0.02625000 127 128 148 8667
-0.10550000 5.30350018 0.02825000 127 128 148 6978
-0.10550000 5.30424976 0.03125000 89 86 107 9989
-0.10550000 5.30299997 0.03225000 89 86 107 8346
-0.10550000 5.30424976 0.03325000 90 85 107 7571
-0.10550000 5.30525017 0.03825000 90 82 105 7975
-0.10550000 5.30424976 0.03925000 90 82 105 7907
-0.10550000 5.30450010 0.04625000 90 81 102 6707
-0.10550000 5.30499983 0.04725000 90 81 102 7057
-0.10550000 5.30499983 0.04925000 90 81 102 7682
-0.10550000 5.30574989 0.05025000 90 81 102 7650
-0.10550000 5.30499983 0.05125000 89 80 99 7750
-0.10550000 5.30574989 0.05325000 87 78 95 7164
-0.10550000 5.30625010 0.05625000 90 79 93 9239
-0.10550000 5.30550003 0.05725000 91 81 92 8371
-0.10550000 5.30525017 0.05925000 91 81 92 8150
-0.10550000 5.30574989 0.06025000 90 82 93 7832
-0.10550000 5.30674982 0.06125000 90 82 93 7392
-0.10550000 5.30700016 0.06425000 91 83 96 7392
-0.10550000 5.30725002 0.06525000 91 83 96 7174
-0.10550000 5.30749989 0.06825000 90 81 98 6839
-0.10550000 5.30749989 0.07125000 90 81 98 7539
-0.10550000 5.30775023 0.07225000 90 81 98 7689
-0.10550000 5.30775023 0.07325000 88 81 99 8264
-0.10550000 5.30775023 0.07625000 89 81 102 6867
-0.10550000 5.30674982 0.07725000 90 82 105 6460
-0.10550000 5.30725002 0.07825000 90 82 105 6678
-0.10550000 5.30775023 0.08225000 89 81 105 8414
-0.10550000 5.30824995 0.08350000 89 81 105 7639
-0.10550000 5.30875015 0.08750000 93 84 111 7364
-0.10550000 5.30800009 0.08825000 94 89 112 7521
-0.10550000 5.30875015 0.09250000 105 103 124 19675
-0.10550000 5.30875015 0.09350000 142 145 162 25157
-0.10550000 5.30849981 0.09425000 142 145 162 31478
-0.10550000 5.30800009 0.09525000 187 190 205 35428
-0.10550000 5.30875015 0.09625000 187 190 205 38114
-0.10550000 5.30924988 0.09750000 217 221 233 37785
-0.10550000 5.30975008 0.09850000 217 221 233 38107
-0.10550000 5.30849981 0.10150000 229 236 246 19507
-0.10550000 5.31024981 0.10250000 223 230 236 12035
-0.10450000 5.30200005 0.00675000 103 87 88 5135
-0.10450000 5.30299997 0.01175000 159 149 157 12217
-0.10450000 5.30299997 0.01275000 159 149 157 19750
-0.10450000 5.30350018 0.01575000 215 213 216 36178
-0.10450000 5.30350018 0.01675000 215 213 216 36464
-0.10450000 5.30299997 0.01775000 223 224 229 38492
-0.10450000 5.30299997 0.01875000 223 224 229 38167
-0.10450000 5.30275011 0.02175000 228 230 251 25767
-0.10450000 5.30299997 0.02275000 228 230 251 18842
-0.10450000 5.30299997 0.02375000 228 230 251 14132
-0.10450000 5.30424976 0.02475000 210 211 232 11078
-0.10450000 5.30399990 0.02575000 210 211 232 9160
-0.10450000 5.30350018 0.02775000 163 164 185 7671
-0.10450000 5.30350018 0.03075000 99 97 119 9567
-0.10450000 5.30399990 0.03175000 99 97 119 8542
-0.10450000 5.30399990 0.03275000 99 97 119 7857
-0.10450000 5.30450010 0.03375000 91 88 109 7442
-0.10450000 5.30474997 0.03475000 91 88 109 8828
-0.10450000 5.30474997 0.03675000 85 82 103 8632
-0.10450000 5.30424976 0.03775000 90 85 107 7910
-0.10450000 5.30525017 0.03975000 89 81 104 7442
-0.10450000 5.30474997 0.04075000 89 81 104 7564
-0.10450000 5.30424976 0.04375000 87 79 100 7271
-0.10450000 5.30574989 0.04675000 91 82 103 7496
-0.10450000 5.30600023 0.04775000 91 82 103 6446
-0.10450000 5.30525017 0.04875000 92 83 104 6057
-0.10450000 5.30499983 0.04975000 92 83 104 7074
-0.10450000 5.30625010 0.05075000 89 80 99 8178
-0.10450000 5.30574989 0.05175000 89 80 99 8532
-0.10450000 5.30474997 0.05275000 87 78 95 8239
-0.10450000 5.30474997 0.05375000 87 78 95 6982
-0.10450000 5.30625010 0.05575000 89 79 90 8335
-0.10450000 5.30600023 0.05675000 89 79 90 8692
-0.10450000 5.30649996 0.05775000 90 80 89 8135
-0.10450000 5.30525017 0.06075000 90 82 93 7953
-0.10450000 5.30600023 0.06575000 92 84 97 7889
-0.10450000 5.30700016 0.06975000 90 82 97 7264
-0.10450000 5.30749989 0.07175000 89 80 97 8075
-0.10450000 5.30700016 0.07275000 88 81 99 8560
-0.10450000 5.30775023 0.07375000 88 81 99 8210
-0.10450000 5.30849981 0.07875000 90 82 105 6764
-0.10450000 5.30749989 0.08075000 90 82 105 7721
-0.10450000 5.30674982 0.08175000 91 83 107 7392
-0.10450000 5.30875015 0.08275000 91 83 107 7478
-0.10450000 5.30775023 0.08375000 90 84 110 7121
-0.10450000 5.30875015 0.08675000 93 87 113 8264
-0.10450000 5.30824995 0.08775000 93 87 113 9000
-0.10450000 5.30849981 0.09075000 129 132 151 17642
-0.10450000 5.30800009 0.09175000 129 132 151 22871
-0.10450000 5.30900002 0.09275000 184 190 206 30614
-0.10450000 5.30924988 0.09375000 184 190 206 34085
-0.10475000 5.30950022 0.09475000 184 190 206 36864
-0.10450000 5.30924988 0.09575000 224 230 244 35696
-0.10450000 5.30924988 0.09675000 224 230 244 37475
-0.10450000 5.30875015 0.09775000 223 231 244 37017
-0.10475000 5.30950022 0.09875000 223 231 244 35982
-0.10475000 5.30999994 0.09975000 220 228 239 34864
-0.10450000 5.30875015 0.10075000 220 228 239 28407
-0.10450000 5.30875015 0.10175000 223 232 239 20525
-0.10475000 5.30950022 0.10275000 223 232 239 12732
-0.10350000 5.30275011 0.01125000 159 149 157 16689
-0.10350000 5.30324984 0.01425000 189 184 190 34653
-0.10350000 5.30324984 0.01625000 215 213 216 38489
-0.10350000 5.30249977 0.01725000 223 224 229 41117
-0.10350000 5.30324984 0.01825000 223 224 229 41296
-0.10350000 5.30299997 0.01925000 223 224 229 39846
-0.10350000 5.30350018 0.02025000 226 228 243 38817
-0.10350000 5.30299997 0.02125000 226 228 243 37375
-0.10350000 5.30375004 0.02225000 228 230 251 30653
-0.10350000 5.30249977 0.02325000 228 230 251 23310
-0.10350000 5.30375004 0.02525000 210 211 232 11303
-0.10350000 5.30375004 0.02625000 163 164 185 9064
-0.10350000 5.30424976 0.02725000 163 164 185 8246
-0.10350000 5.30450010 0.02925000 119 120 141 8242
-0.10350000 5.30424976 0.03225000 99 97 119 8189
-0.10350000 5.30424976 0.03425000 91 88 109 7696
-0.10350000 5.30399990 0.03525000 85 82 103 8692
-0.10350000 5.30450010 0.03625000 85 82 103 9496
-0.10350000 5.30424976 0.03725000 90 85 107 8817
-0.10350000 5.30499983 0.04125000 89 81 104 7503
-0.10350000 5.30499983 0.04225000 87 79 100 8625
-0.10350000 5.30450010 0.04425000 89 80 101 8342
-0.10350000 5.30550003 0.04525000 89 80 101 7735
-0.10350000 5.30499983 0.04625000 91 82 103 7471
-0.10350000 5.30499983 0.04725000 91 82 103 7814
-0.10350000 5.30600023 0.04925000 92 83 104 7639
-0.10350000 5.30574989 0.05225000 89 80 99 7860
-0.10350000 5.30649996 0.05625000 89 79 90 8332
-0.10350000 5.30674982 0.05925000 90 82 93 7421
-0.10350000 5.30700016 0.06425000 92 84 97 7307
-0.10350000 5.30700016 0.06525000 92 84 97 6439
-0.10350000 5.30700016 0.06625000 91 83 96 7242
-0.10350000 5.30625010 0.06725000 91 83 96 7207
-0.10350000 5.30725002 0.06825000 90 82 97 7342
-0.10350000 5.30674982 0.07125000 89 80 97 8332
-0.10350000 5.30700016 0.07225000 89 80 97 8660
-0.10350000 5.30775023 0.07725000 90 82 105 6042
-0.10350000 5.30725002 0.08325000 91 83 107 7389
-0.10350000 5.30700016 0.08425000 90 84 110 6821
-0.10350000 5.30875015 0.08650000 93 87 113 7371
-0.10350000 5.30875015 0.08750000 93 87 113 8864
-0.10350000 5.30875015 0.08850000 95 91 114 10714
-0.10350000 5.30775023 0.08925000 95 91 114 15985
-0.10350000 5.30749989 0.09025000 129 132 151 21560
-0.10350000 5.30900002 0.09250000 129 132 151 32607
-0.10350000 5.30900002 0.09350000 184 190 206 37478
-0.10350000 5.30900002 0.09450000 184 190 206 38114
-0.10350000 5.30950022 0.09550000 224 230 244 37317
-0.10350000 5.30900002 0.09625000 224 230 244 38600
-0.10350000 5.30900002 0.09725000 223 231 244 38600
-0.10350000 5.30924988 0.10050000 220 228 239 33203
-0.10350000 5.30875015 0.10150000 220 228 239 29135
-0.10350000 5.30950022 0.10350000 223 232 239 14021
-0.10250000 5.30275011 0.00975000 127 114 121 9228
-0.10250000 5.30299997 0.01075000 159 149 157 17942
-0.10250000 5.30249977 0.01175000 159 149 157 27078
-0.10250000 5.30324984 0.01275000 159 149 157 34789
-0.10250000 5.30324984 0.01375000 189 184 190 36767
-0.10250000 5.30275011 0.01475000 189 184 190 39328
-0.10250000 5.30350018 0.01575000 215 213 216 39153
-0.10250000 5.30200005 0.01675000 215 213 216 37850
-0.10250000 5.30200005 0.01775000 223 224 229 36189
-0.10250000 5.30275011 0.01875000 223 224 229 36182
-0.10250000 5.30375004 0.02175000 228 230 251 37367
-0.10250000 5.30399990 0.02275000 228 230 251 32764
-0.10250000 5.30399990 0.02375000 228 230 251 25121
-0.10250000 5.30324984 0.02475000 210 211 232 18607
-0.10250000 5.30424976 0.02575000 210 211 232 13575
-0.10250000 5.30275011 0.02675000 163 164 185 10464
-0.10250000 5.30375004 0.02775000 163 164 185 9096
-0.10250000 5.30474997 0.02875000 119 120 141 7875
-0.10250000 5.30424976 0.02975000 119 120 141 7660
-0.10250000 5.30424976 0.03075000 99 97 119 7839
-0.10250000 5.30424976 0.03275000 99 97 119 7864
-0.10250000 5.30324984 0.03375000 91 88 109 6892
-0.10250000 5.30424976 0.03475000 91 88 109 7814
-0.10250000 5.30525017 0.03575000 85 82 103 9403
-0.10250000 5.30450010 0.03675000 85 82 103 9417
-0.10250000 5.30424976 0.03875000 90 85 107 9339
-0.10250000 5.30474997 0.04075000 89 81 104 8210
-0.10250000 5.30474997 0.04275000 87 79 100 8907
-0.10250000 5.30450010 0.04375000 87 79 100 8192
-0.10250000 5.30499983 0.04475000 89 80 101 7839
-0.10250000 5.30574989 0.04875000 92 83 104 8178
-0.10250000 5.30574989 0.04975000 92 83 104 8953
-0.10250000 5.30625010 0.05075000 89 80 99 9157
-0.10250000 5.30574989 0.05175000 89 80 99 8875
-0.10250000 5.30649996 0.05475000 87 78 95 8332
-0.10250000 5.30625010 0.05575000 89 79 90 7685
-0.10250000 5.30649996 0.05675000 89 79 90 7835
-0.10250000 5.30600023 0.05775000 90 80 89 8303
-0.10250000 5.30649996 0.05875000 90 80 89 7721
-0.10250000 5.30725002 0.06075000 90 82 93 7042
-0.10250000 5.30725002 0.06175000 92 84 95 7775
-0.10250000 5.30625010 0.06375000 92 84 95 7417
-0.10250000 5.30625010 0.06475000 92 84 97 6971
-0.10250000 5.30725002 0.06775000 91 83 96 6271
-0.10250000 5.30700016 0.06975000 90 82 97 7403
-0.10250000 5.30800009 0.07075000 89 80 97 7214
-0.10250000 5.30800009 0.07375000 88 81 99 7025
-0.10250000 5.30775023 0.07475000 88 81 99 7307
-0.10250000 5.30749989 0.07575000 89 81 102 6803
-0.10250000 5.30800009 0.07675000 89 81 102 7107
-0.10250000 5.30849981 0.07975000 90 82 105 10067
-0.10250000 5.30849981 0.08075000 90 82 105 9989
-0.10250000 5.30849981 0.08275000 91 83 107 8089
-0.10250000 5.30900002 0.08875000 95 91 114 18246
-0.10250000 5.30824995 0.08975000 95 91 114 22696
-0.10250000 5.30900002 0.09175000 129 132 151 33207
-0.10250000 5.30900002 0.09275000 184 190 206 35985
-0.10250000 5.30824995 0.09375000 184 190 206 34746
-0.10250000 5.30849981 0.09475000 184 190 206 37171
-0.10275000 5.30999994 0.09675000 224 230 244 37782
-0.10250000 5.30900002 0.09775000 223 231 244 37321
-0.10250000 5.30900002 0.09875000 223 231 244 37321
-0.10250000 5.30849981 0.09975000 220 228 239 33957
-0.10275000 5.30950022 0.10075000 220 228 239 33571
-0.10275000 5.30924988 0.10175000 223 232 239 30614
-0.10275000 5.30975008 0.10275000 223 232 239 25871
-0.10275000 5.30950022 0.10375000 216 225 230 17164
-0.10150000 5.30275011 0.01125000 176 174 179 30457
-0.10150000 5.30350018 0.01325000 210 211 215 35746
-0.10150000 5.30224991 0.01425000 210 211 215 35064
-0.10150000 5.30224991 0.01525000 222 228 228 35753
-0.10150000 5.30200005 0.01625000 222 228 228 36189
-0.10150000 5.30324984 0.01725000 219 224 230 38321
-0.10150000 5.30299997 0.02025000 226 229 246 38989
-0.10150000 5.30399990 0.02125000 226 229 246 37210
-0.10150000 5.30399990 0.02325000 224 226 247 31728
-0.10150000 5.30399990 0.02425000 227 229 250 26442
-0.10150000 5.30299997 0.02525000 227 229 250 21232
-0.10150000 5.30299997 0.02625000 219 221 242 16064
-0.10150000 5.30275011 0.02725000 219 221 242 12828
-0.10150000 5.30474997 0.02825000 219 221 242 11007
-0.10150000 5.30324984 0.03325000 87 88 108 8389
-0.10150000 5.30450010 0.03625000 87 85 106 8560
-0.10150000 5.30450010 0.03725000 91 88 109 9039
-0.10150000 5.30550003 0.03825000 91 88 109 9035
-0.10150000 5.30499983 0.03925000 91 88 109 8642
-0.10150000 5.30525017 0.04025000 91 88 109 8192
-0.10150000 5.30550003 0.04125000 91 88 109 7489
-0.10150000 5.30525017 0.04225000 88 83 103 7789
-0.10150000 5.30600023 0.04625000 89 81 102 8285
-0.10150000 5.30600023 0.04925000 94 86 107 6825
-0.10150000 5.30649996 0.05025000 94 86 107 8010
-0.10150000 5.30550003 0.05225000 92 83 102 8196
-0.10150000 5.30600023 0.05525000 91 81 92 7067
-0.10150000 5.30574989 0.05625000 91 81 92 7339
-0.10150000 5.30550003 0.05725000 91 81 90 7285
-0.10150000 5.30649996 0.05825000 91 81 90 9117
-0.10150000 5.30700016 0.05925000 91 81 92 8417
-0.10150000 5.30649996 0.06025000 91 81 92 7092
-0.10150000 5.30649996 0.06225000 91 81 92 6575
-0.10150000 5.30700016 0.06425000 89 81 94 7060
-0.10150000 5.30700016 0.06725000 88 80 95 7325
-0.10150000 5.30700016 0.06925000 87 80 96 6821
-0.10150000 5.30674982 0.07225000 87 80 98 6300
-0.10150000 5.30800009 0.07325000 86 78 99 6600
-0.10150000 5.30800009 0.07625000 87 79 100 7742
-0.10150000 5.30700016 0.08125000 88 83 106 8439
-0.10150000 5.30749989 0.08425000 91 85 111 8014
-0.10150000 5.30849981 0.08625000 111 105 131 9557
-0.10150000 5.30775023 0.08725000 111 105 131 15003
-0.10150000 5.30849981 0.08825000 129 127 149 21203
-0.10150000 5.30875015 0.09050000 196 199 218 33207
-0.10150000 5.30824995 0.09125000 196 199 218 34746
-0.10150000 5.30824995 0.09225000 196 199 218 36135
-0.10150000 5.30800009 0.09325000 211 218 234 36875
-0.10175000 5.30900002 0.09450000 211 218 234 35842
-0.10175000 5.30975008 0.09550000 225 233 246 35982
-0.10150000 5.30875015 0.09625000 225 233 246 36567
-0.10175000 5.30924988 0.09750000 223 233 245 35007
-0.10175000 5.30924988 0.09850000 223 233 245 37014
-0.10150000 5.30875015 0.10050000 219 229 239 36132
-0.10175000 5.30950022 0.10150000 219 229 239 35692
-0.10175000 5.30975008 0.10250000 222 231 240 33821
-0.10175000 5.30999994 0.10450000 221 230 237 18542
-0.10050000 5.30224991 0.01075000 176 174 179 33139
-0.10050000 5.30324984 0.01175000 176 174 179 33750
-0.10050000 5.30249977 0.01275000 176 174 179 36925
-0.10050000 5.30324984 0.01375000 210 211 215 37685
-0.10050000 5.30324984 0.01475000 210 211 215 38653
-0.10050000 5.30299997 0.01575000 222 228 228 37689
-0.10050000 5.30275011 0.01675000 222 228 228 37535
-0.10050000 5.30375004 0.01775000 219 224 230 38817
-0.10050000 5.30399990 0.01875000 219 224 230 40375
-0.10050000 5.30324984 0.01975000 226 229 246 40021
-0.10050000 5.30375004 0.02075000 226 229 246 40196
-0.10050000 5.30299997 0.02275000 224 226 247 37532
-0.10050000 5.30350018 0.02375000 224 226 247 35471
-0.10050000 5.30350018 0.02475000 227 229 250 32889
-0.10050000 5.30350018 0.02575000 227 229 250 28171
-0.10050000 5.30375004 0.02675000 219 221 242 20410
-0.10050000 5.30350018 0.02775000 219 221 242 15864
-0.10050000 5.30474997 0.02875000 176 178 199 12878
-0.10050000 5.30474997 0.03075000 119 120 141 9392
-0.10050000 5.30474997 0.03175000 119 120 141 8457
-0.10050000 5.30474997 0.03375000 87 88 108 7900
-0.10050000 5.30450010 0.03475000 87 88 108 8271
-0.10050000 5.30450010 0.03575000 87 85 106 8060
-0.10050000 5.30550003 0.03875000 91 88 109 8150
-0.10050000 5.30574989 0.03975000 91 88 109 7782
-0.10050000 5.30450010 0.04075000 91 88 109 7414
-0.10050000 5.30499983 0.04275000 88 83 103 7364
-0.10050000 5.30474997 0.04375000 88 83 103 8221
-0.10050000 5.30574989 0.04475000 86 78 99 8625
-0.10050000 5.30525017 0.04775000 89 81 102 8528
-0.10050000 5.30574989 0.04875000 94 86 107 7146
-0.10050000 5.30474997 0.05175000 92 83 102 8335
-0.10050000 5.30700016 0.05975000 91 81 92 7917
-0.10050000 5.30674982 0.06075000 91 81 92 7660
-0.10050000 5.30649996 0.06175000 91 81 92 7482
-0.10050000 5.30725002 0.06275000 91 81 92 6778
-0.10050000 5.30725002 0.06375000 91 81 92 6678
-0.10050000 5.30625010 0.06675000 88 80 95 7753
-0.10050000 5.30649996 0.06775000 88 80 95 8146
-0.10050000 5.30725002 0.06875000 87 80 96 7950
-0.10050000 5.30700016 0.06975000 87 80 96 6917
-0.10050000 5.30800009 0.07975000 88 83 106 8510
-0.10050000 5.30849981 0.08175000 86 80 106 7189
-0.10050000 5.30875015 0.08375000 91 85 111 8017
-0.10050000 5.30875015 0.08575000 91 85 111 10696
-0.10050000 5.30775023 0.08775000 111 105 131 23107
-0.10050000 5.30800009 0.08875000 129 127 149 30835
-0.10050000 5.30900002 0.08975000 129 127 149 35425
-0.10050000 5.30800009 0.09075000 196 199 218 36725
-0.10050000 5.30900002 0.09175000 196 199 218 36717
-0.10050000 5.30950022 0.09275000 211 218 234 36864
-0.10050000 5.30900002 0.09375000 211 218 234 38114
-0.10050000 5.30849981 0.09475000 211 218 234 36871
-0.10050000 5.30950022 0.09575000 225 233 246 34867
-0.10050000 5.30824995 0.09675000 225 233 246 32850
-0.10050000 5.30924988 0.09775000 223 233 245 33575
-0.10050000 5.30924988 0.09875000 223 233 245 35839
-0.10050000 5.31024981 0.10075000 219 229 239 36557
-0.10050000 5.30999994 0.10175000 222 231 240 35553
-0.10050000 5.31024981 0.10275000 222 231 240 35000
-0.10050000 5.30924988 0.10375000 221 230 237 31800
-0.10050000 5.30975008 0.10475000 221 230 237 22185
