//X Y Z R G B Intensity
-0.11400000 5.30574989 0.06500000 65 36 56 1732
-0.11400000 5.30324984 0.06900000 73 46 65 1928
-0.11375000 5.29775000 0.09000000 61 44 63 867
-0.11325000 5.31599998 0.02775000 72 63 82 1625
-0.11325000 5.31675005 0.02875000 62 50 70 1675
-0.11325000 5.31300020 0.03875000 61 39 62 1382
-0.11300000 5.30999994 0.04575000 65 41 65 1657
-0.11325000 5.31075001 0.04875000 60 38 61 1671
-0.11300000 5.30324984 0.06875000 73 46 65 1803
-0.11300000 5.30275011 0.07075000 71 43 65 1960
-0.11300000 5.30149984 0.07975000 61 39 60 2021
-0.11275000 5.29775000 0.09050000 63 51 65 1650
-0.11275000 5.29699993 0.09150000 63 51 65 1446
-0.11225000 5.31724977 0.02225000 152 148 165 1657
-0.11225000 5.31675005 0.02325000 152 148 165 1607
-0.11225000 5.31799984 0.02425000 105 98 116 1600
-0.11225000 5.31624985 0.02725000 72 63 82 1732
-0.11225000 5.31650019 0.02925000 62 50 70 1678
-0.11225000 5.31475019 0.03025000 62 50 70 1650
-0.11225000 5.31524992 0.03325000 52 34 56 1692
-0.11225000 5.31300020 0.04025000 64 40 64 1592
-0.11225000 5.31099987 0.04225000 65 41 65 1453
-0.11225000 5.31075001 0.04625000 62 40 63 1675
-0.11200000 5.31050014 0.04725000 62 40 63 1592
-0.11200000 5.30800009 0.05725000 66 35 53 1610
-0.11200000 5.30700016 0.06100000 68 37 55 1639
-0.11200000 5.30350018 0.06900000 73 46 65 1882
-0.11175000 5.29850006 0.08700000 63 44 64 2082
-0.11125000 5.31774998 0.02375000 75 68 86 1675
-0.11125000 5.31750011 0.02575000 51 42 61 1774
-0.11125000 5.31500006 0.03275000 60 42 64 1896
-0.11125000 5.31374979 0.03575000 66 44 67 1664
-0.11100000 5.30849981 0.05475000 68 39 61 1910
-0.11100000 5.30775023 0.05875000 66 34 57 1824
-0.11100000 5.30725002 0.05975000 66 37 59 1785
-0.11100000 5.30399990 0.06875000 72 44 67 2085
-0.11100000 5.30375004 0.07175000 70 42 65 1882
-0.11100000 5.30324984 0.07375000 63 38 60 1985
-0.11075000 5.29949999 0.08450000 66 43 69 1828
-0.11025000 5.31949997 0.01825000 190 176 176 8250
-0.11025000 5.31750011 0.02225000 125 121 138 2242
-0.11025000 5.31699991 0.02425000 75 68 86 1900
-0.11025000 5.31575012 0.02625000 51 42 61 1807
-0.11025000 5.31575012 0.02825000 53 41 61 1957
-0.11025000 5.31624985 0.03025000 53 41 61 1792
-0.11025000 5.31199980 0.04325000 64 40 64 1871
-0.11000000 5.30824995 0.05325000 61 36 58 1692
-0.11000000 5.30700016 0.05700000 66 34 57 1646
-0.11000000 5.30625010 0.06500000 65 36 58 1839
-0.11000000 5.30474997 0.06600000 68 38 62 1857
-0.11000000 5.29699993 0.09400000 57 46 62 5532
-0.10975000 5.29575014 0.09600000 70 59 73 10882
-0.10975000 5.29575014 0.09700000 103 95 106 3578
-0.10925000 5.31925011 0.01675000 183 163 156 3950
-0.10925000 5.31874990 0.01775000 183 167 167 14517
-0.10925000 5.31925011 0.01975000 142 134 145 11278
-0.10925000 5.31925011 0.02075000 142 134 145 7007
-0.10925000 5.31724977 0.02475000 86 79 97 2075
-0.10925000 5.31424999 0.03775000 57 35 58 1896
-0.10925000 5.31099987 0.04575000 64 40 64 1610
-0.10925000 5.31075001 0.04975000 61 37 61 1689
-0.10900000 5.30800009 0.05775000 69 37 60 1857
-0.10900000 5.30625010 0.06175000 68 38 62 1725
-0.10900000 5.30474997 0.06575000 64 34 58 1853
-0.10875000 5.29775000 0.09250000 65 56 73 4135
-0.10875000 5.29750013 0.09350000 65 56 73 9067
-0.10875000 5.29724979 0.09450000 95 87 102 15853
-0.10875000 5.29624987 0.09550000 95 87 102 18825
-0.10875000 5.29549980 0.09650000 95 87 102 16025
-0.10825000 5.31825018 0.01725000 183 167 167 18064
-0.10825000 5.31874990 0.01825000 183 167 167 22150
-0.10825000 5.31774998 0.02025000 142 134 145 15596
-0.10825000 5.31724977 0.02125000 142 134 145 9728
-0.10825000 5.31774998 0.02225000 115 111 128 5453
-0.10825000 5.31774998 0.02425000 86 79 97 2439
-0.10825000 5.31300020 0.03725000 57 35 58 1771
-0.10825000 5.31349993 0.03825000 57 35 58 1753
-0.10825000 5.31225014 0.04325000 63 39 63 1539
-0.10825000 5.31024981 0.05125000 61 37 61 1707
-0.10800000 5.30525017 0.06800000 66 38 61 1832
-0.10800000 5.30149984 0.08100000 66 42 68 1914
-0.10800000 5.30074978 0.08300000 64 40 66 1907
-0.10775000 5.29724979 0.09100000 57 44 64 3128
-0.10775000 5.29650021 0.09300000 65 56 73 12057
-0.10775000 5.29524994 0.09700000 134 128 140 19435
-0.10775000 5.29575014 0.09800000 134 128 140 13157
-0.10725000 5.32000017 0.01475000 170 150 143 2714
-0.10725000 5.31899977 0.01575000 170 150 143 17103
-0.10725000 5.31850004 0.01675000 170 150 143 24700
-0.10725000 5.31850004 0.01875000 154 138 138 28896
-0.10725000 5.31850004 0.01975000 150 142 155 24428
-0.10725000 5.31724977 0.02075000 150 142 155 17339
-0.10725000 5.31724977 0.02175000 139 134 154 11128
-0.10725000 5.31799984 0.02275000 139 134 154 6464
-0.10725000 5.31774998 0.02575000 97 88 109 2228
-0.10725000 5.31599998 0.02975000 67 55 77 1942
-0.10725000 5.31449986 0.03575000 53 33 58 1710
-0.10700000 5.30649996 0.05875000 65 35 61 1717
-0.10700000 5.30749989 0.06075000 68 38 64 1857
-0.10700000 5.30674982 0.06375000 63 35 60 1803
-0.10700000 5.30525017 0.06475000 63 35 60 1750
-0.10700000 5.30124998 0.07675000 66 40 69 1846
-0.10700000 5.29799986 0.08950000 65 45 72 2910
-0.10700000 5.29825020 0.09150000 72 60 84 8828
-0.10700000 5.29724979 0.09350000 98 90 111 21975
-0.10700000 5.29699993 0.09450000 133 126 144 29689
-0.10675000 5.29675007 0.09650000 133 126 144 27275
-0.10675000 5.29575014 0.09750000 156 152 167 21614
-0.10675000 5.29500008 0.09850000 156 152 167 14992
-0.10675000 5.29600000 0.09950000 162 160 171 8332
-0.10625000 5.32100010 0.01425000 147 127 118 10353
-0.10625000 5.31949997 0.01625000 170 150 143 25682
-0.10625000 5.31899977 0.01725000 154 138 138 29267
-0.10625000 5.31825018 0.01825000 154 138 138 30357
-0.10625000 5.31974983 0.01925000 150 142 155 28614
-0.10625000 5.31799984 0.02525000 125 117 138 3014
-0.10625000 5.31750011 0.02625000 97 88 109 2164
-0.10625000 5.31549978 0.03225000 53 39 62 1914
-0.10625000 5.31374979 0.03325000 54 36 60 1967
-0.10625000 5.31024981 0.04625000 63 37 64 1617
-0.10600000 5.30875015 0.05525000 69 39 65 1639
-0.10600000 5.30649996 0.06400000 63 35 60 1821
-0.10600000 5.30175018 0.07600000 66 40 69 1757
-0.10600000 5.30025005 0.08100000 67 41 70 2250
-0.10600000 5.29925013 0.08900000 65 45 72 3185
-0.10600000 5.29775000 0.09100000 72 60 84 10403
-0.10575000 5.29699993 0.09300000 98 90 111 23892
-0.10575000 5.29650021 0.09400000 98 90 111 28560
-0.10575000 5.29699993 0.09600000 133 126 144 32685
-0.10575000 5.29699993 0.09700000 156 152 167 29303
-0.10525000 5.31925011 0.01575000 167 150 143 26985
-0.10525000 5.31825018 0.01775000 146 134 134 32667
-0.10525000 5.31825018 0.01875000 146 134 134 32667
-0.10525000 5.31799984 0.02275000 140 135 155 17435
-0.10525000 5.31650019 0.02475000 134 129 149 6310
-0.10525000 5.31575012 0.02775000 112 104 125 2214
-0.10525000 5.31400013 0.03575000 57 39 63 1710
-0.10500000 5.30625010 0.06375000 64 35 63 1792
-0.10500000 5.30324984 0.07275000 57 31 60 1760
-0.10500000 5.30224991 0.07575000 63 37 66 1846
-0.10500000 5.30249977 0.07675000 63 37 66 1839
-0.10500000 5.30149984 0.07975000 65 40 69 2064
-0.10500000 5.30124998 0.08175000 60 35 65 2028
-0.10500000 5.29949999 0.08550000 59 34 64 2232
-0.10500000 5.29925013 0.08850000 69 50 78 4046
-0.10475000 5.29799986 0.09050000 99 89 113 14439
-0.10475000 5.29750013 0.09150000 99 89 113 20717
-0.10475000 5.29799986 0.09250000 129 124 146 27682
-0.10475000 5.29699993 0.09350000 129 124 146 30489
-0.10475000 5.29724979 0.09450000 154 151 170 31550
-0.10475000 5.29750013 0.09550000 154 151 170 33042
-0.10475000 5.29600000 0.09650000 154 151 170 32457
-0.10475000 5.29549980 0.10050000 159 159 171 14017
-0.10475000 5.29449987 0.10150000 154 157 166 7242
-0.10425000 5.31974983 0.01525000 167 150 143 28078
-0.10425000 5.31874990 0.01725000 146 134 134 31971
-0.10425000 5.31899977 0.01825000 146 134 134 32432
-0.10425000 5.31899977 0.01925000 143 135 148 33021
-0.10425000 5.31850004 0.02025000 143 135 148 31524
-0.10425000 5.31774998 0.02125000 143 135 148 28717
-0.10425000 5.31774998 0.02225000 140 135 155 26442
-0.10425000 5.31774998 0.02325000 140 135 155 22942
-0.10425000 5.31699991 0.02425000 134 129 149 15257
-0.10425000 5.31599998 0.02825000 83 74 95 2392
-0.10425000 5.31599998 0.03025000 83 74 95 2267
-0.10425000 5.31599998 0.03225000 70 58 80 1824
-0.10425000 5.31500006 0.03425000 65 50 73 1746
-0.10425000 5.31424999 0.03625000 57 39 63 1942
-0.10425000 5.31099987 0.04425000 63 37 64 1771
-0.10400000 5.30924988 0.04925000 65 36 64 1710
-0.10400000 5.30725002 0.06000000 65 35 61 1753
-0.10400000 5.30600023 0.06600000 66 37 65 1885
-0.10400000 5.30525017 0.06800000 67 38 66 1978
-0.10400000 5.30275011 0.07700000 68 42 71 1892
-0.10400000 5.29825020 0.09000000 69 50 78 16732
-0.10375000 5.29775000 0.09100000 99 89 113 24207
-0.10375000 5.29724979 0.09200000 99 89 113 28121
-0.10375000 5.29750013 0.09300000 129 124 146 29982
-0.10375000 5.29724979 0.09500000 154 151 170 34039
-0.10375000 5.29724979 0.09600000 154 151 170 34692
-0.10375000 5.29549980 0.09700000 160 157 174 32232
-0.10375000 5.29600000 0.10000000 159 159 171 21614
-0.10325000 5.32049990 0.01175000 129 109 98 9171
-0.10325000 5.31949997 0.01375000 156 137 130 25753
-0.10325000 5.31925011 0.01475000 167 150 143 29850
-0.10325000 5.31899977 0.01575000 167 150 143 32082
-0.10325000 5.31949997 0.01675000 167 150 143 32778
-0.10325000 5.31899977 0.01775000 146 134 134 33764
-0.10325000 5.31899977 0.01875000 146 134 134 33267
-0.10325000 5.31774998 0.02175000 140 135 155 32092
-0.10325000 5.31799984 0.02275000 140 135 155 28807
-0.10325000 5.31825018 0.02375000 134 129 149 23114
-0.10325000 5.31724977 0.02475000 134 129 149 15957
-0.10325000 5.31675005 0.02575000 134 129 149 10117
-0.10325000 5.31699991 0.02675000 112 104 125 5521
-0.10325000 5.31624985 0.02775000 112 104 125 3446
-0.10325000 5.31650019 0.02975000 83 74 95 2253
-0.10300000 5.30424976 0.06575000 64 35 63 1875
-0.10300000 5.30000019 0.08150000 60 35 65 2010
-0.10300000 5.30049992 0.08550000 59 34 64 2760
-0.10300000 5.29899979 0.08750000 66 41 71 8339
-0.10300000 5.29899979 0.08850000 69 50 78 14621
-0.10300000 5.29750013 0.08950000 69 50 78 21503
-0.10300000 5.29850006 0.09050000 99 89 113 28289
-0.10300000 5.29874992 0.09150000 99 89 113 30578
-0.10275000 5.29650021 0.09350000 129 124 146 32228
-0.10275000 5.29624987 0.09450000 154 151 170 32114
-0.10275000 5.29650021 0.09550000 154 151 170 32342
-0.10300000 5.29724979 0.09650000 154 151 170 32571
-0.10300000 5.29699993 0.09750000 160 157 174 31328
-0.10275000 5.29549980 0.09850000 160 157 174 29596
-0.10275000 5.29600000 0.09950000 159 159 171 27032
-0.10275000 5.29575014 0.10050000 159 159 171 24678
-0.10275000 5.29575014 0.10150000 154 157 166 17514
-0.10250000 5.32100010 0.01125000 133 118 113 9117
-0.10225000 5.32049990 0.01225000 133 118 113 16592
-0.10225000 5.32025003 0.01325000 134 120 117 25674
-0.10225000 5.32000017 0.01425000 134 120 117 29075
-0.10225000 5.31925011 0.01525000 138 128 127 29264
-0.10225000 5.31774998 0.01925000 143 139 153 31092
-0.10225000 5.31799984 0.02225000 139 136 155 28899
-0.10225000 5.31799984 0.02325000 139 136 155 27407
-0.10225000 5.31624985 0.02525000 139 136 155 20000
-0.10225000 5.31624985 0.02625000 139 134 154 13585
-0.10225000 5.31650019 0.02725000 139 134 154 7975
-0.10225000 5.31274986 0.03925000 65 45 70 1871
-0.10225000 5.31075001 0.04925000 72 43 71 1628
-0.10225000 5.30875015 0.05600000 64 34 62 1735
-0.10225000 5.30849981 0.05700000 64 34 62 1575
-0.10200000 5.30600023 0.06100000 64 35 63 1671
-0.10200000 5.30399990 0.06700000 66 37 65 1778
-0.10200000 5.30124998 0.07600000 62 37 66 1942
-0.10200000 5.30025005 0.08600000 73 49 81 4628
-0.10200000 5.29799986 0.08800000 97 81 110 17046
-0.10200000 5.29925013 0.08900000 97 81 110 22342
-0.10200000 5.29799986 0.09000000 97 81 110 28378
-0.10200000 5.29850006 0.09200000 138 130 154 32328
-0.10200000 5.29799986 0.09300000 145 142 163 32332
-0.10200000 5.29650021 0.09400000 145 142 163 32575
-0.10200000 5.29724979 0.09500000 156 154 175 32450
-0.10200000 5.29624987 0.09600000 156 154 175 32228
-0.10200000 5.29600000 0.09700000 160 161 179 31335
-0.10200000 5.29675007 0.09800000 160 161 179 30489
-0.10200000 5.29650021 0.09900000 160 162 175 31442
-0.10175000 5.29449987 0.09975000 160 162 175 29410
-0.10175000 5.29500008 0.10100000 160 162 175 25017
-0.10200000 5.29549980 0.10200000 156 160 171 17932
-0.10175000 5.29425001 0.10300000 156 160 171 10446
-0.10125000 5.32100010 0.01075000 133 118 113 3967
-0.10125000 5.31949997 0.01375000 134 120 117 30350
-0.10125000 5.31874990 0.01775000 144 135 140 30153
-0.10125000 5.31874990 0.01875000 144 135 140 30153
-0.10125000 5.31774998 0.02075000 143 139 153 31635
-0.10125000 5.31750011 0.02175000 139 136 155 30885
-0.10125000 5.31650019 0.02375000 139 136 155 30371
-0.10125000 5.31650019 0.02475000 139 136 155 26146
-0.10125000 5.31624985 0.02675000 139 134 154 16703
-0.10125000 5.31724977 0.02775000 139 134 154 11050
-0.10125000 5.31675005 0.02975000 122 114 135 3264
-0.10125000 5.31150007 0.04675000 65 39 66 1789
-0.10100000 5.30875015 0.05175000 71 41 69 1617
-0.10100000 5.30625010 0.06175000 64 35 63 1978
-0.10100000 5.30424976 0.07175000 65 39 68 2014
-0.10100000 5.30275011 0.07475000 62 37 66 1917
-0.10100000 5.30224991 0.07875000 65 40 70 1935
-0.10100000 5.29925013 0.08550000 57 34 63 7307
-0.10100000 5.29874992 0.08750000 73 49 81 21600
-0.10100000 5.29899979 0.08850000 97 81 110 27096
-0.10100000 5.29899979 0.09050000 138 130 154 31539
-0.10100000 5.29699993 0.09150000 138 130 154 30592
-0.10100000 5.29799986 0.09350000 145 142 163 32567
-0.10075000 5.29624987 0.09550000 156 154 175 30696
-0.10075000 5.29575014 0.09650000 156 154 175 30292
-0.10075000 5.29650021 0.09750000 160 161 179 30492
-0.10075000 5.29600000 0.09850000 160 161 179 32232
-0.10075000 5.29549980 0.09950000 160 162 175 30396
-0.10075000 5.29449987 0.10050000 160 162 175 28575
-0.10075000 5.29500008 0.10150000 156 160 171 25164
-0.10075000 5.29500008 0.10250000 156 160 171 19992
-0.10025000 5.32100010 0.01125000 131 121 120 18971
-0.10025000 5.32124996 0.01225000 131 121 120 28246
-0.10025000 5.32124996 0.01325000 129 123 125 30442
-0.10025000 5.31925011 0.01425000 129 123 125 29264
-0.10025000 5.31949997 0.01625000 135 130 134 31853
-0.10025000 5.32025003 0.01725000 140 137 146 32074
-0.10025000 5.31825018 0.01825000 140 137 146 31524
-0.10025000 5.31724977 0.02125000 140 138 152 29760
-0.10025000 5.31699991 0.02225000 140 139 157 30060
-0.10025000 5.31624985 0.02525000 145 144 162 28449
-0.10025000 5.31724977 0.02725000 151 148 167 20217
-0.10025000 5.31549978 0.02825000 143 138 158 13228
-0.10025000 5.31400013 0.03625000 71 59 81 1792
-0.10000000 5.30849981 0.05525000 63 33 61 1635
-0.10000000 5.30625010 0.06000000 63 34 62 1625
-0.10000000 5.30600023 0.06300000 64 35 63 1682
-0.10000000 5.30350018 0.07500000 63 40 68 1785
-0.10000000 5.30000019 0.08400000 71 52 80 4375
-0.10000000 5.30025005 0.08500000 71 52 80 8596
-0.10000000 5.29925013 0.08600000 102 83 113 14735
-0.10000000 5.29925013 0.08700000 102 83 113 22289
-0.10000000 5.29850006 0.09000000 126 112 138 31542
-0.10000000 5.29699993 0.09100000 150 145 168 32453
-0.10000000 5.29699993 0.09200000 150 145 168 32928
-0.10000000 5.29675007 0.09300000 152 153 174 31014
-0.10000000 5.29775000 0.09400000 152 153 174 30282
-0.10000000 5.29675007 0.09500000 159 160 180 30082
-0.10000000 5.29600000 0.09600000 159 160 180 30803
-0.10000000 5.29650021 0.09700000 161 164 181 30592
-0.10000000 5.29575014 0.09800000 161 164 181 32232
-0.10000000 5.29575014 0.09900000 160 163 178 32346
-0.10000000 5.29624987 0.10000000 160 163 178 32228
-0.09975000 5.29575014 0.10100000 160 163 178 30600
-0.09975000 5.29549980 0.10200000 158 162 174 27114
-0.09975000 5.29400015 0.10275000 158 162 174 22203
-0.09975000 5.29475021 0.10375000 158 162 171 13803
-0.09925000 5.32124996 0.01075000 131 121 120 21660
-0.09925000 5.32075024 0.01175000 131 121 120 27900
-0.09925000 5.31974983 0.01275000 129 123 125 30971
-0.09925000 5.31974983 0.01375000 129 123 125 31407
-0.09925000 5.31974983 0.01475000 135 130 134 29942
-0.09925000 5.31925011 0.01575000 135 130 134 31082
-0.09925000 5.31925011 0.01675000 135 130 134 31521
-0.09925000 5.31825018 0.01975000 140 138 152 28899
-0.09925000 5.31774998 0.02175000 140 139 157 30160
-0.09925000 5.31825018 0.02275000 140 139 157 29564
-0.09925000 5.31750011 0.02375000 145 144 162 30160
-0.09925000 5.31724977 0.02475000 145 144 162 30885
-0.09925000 5.31624985 0.02575000 145 144 162 29282
-0.09925000 5.31650019 0.02675000 151 148 167 25839
-0.09925000 5.31575012 0.02775000 151 148 167 21278
-0.09900000 5.30299997 0.07675000 63 40 68 1667
-0.09900000 5.30200005 0.07875000 65 45 73 2032
-0.09900000 5.29974985 0.08350000 71 52 80 6982
-0.09900000 5.29899979 0.08550000 71 52 80 19096
-0.09900000 5.29899979 0.08650000 102 83 113 25932
-0.09875000 5.29775000 0.08950000 126 112 138 31435
-0.09875000 5.29775000 0.09050000 150 145 168 31992
-0.09875000 5.29799986 0.09150000 150 145 168 32217
-0.09875000 5.29799986 0.09250000 152 153 174 32221
-0.09875000 5.29750013 0.09350000 152 153 174 31550
-0.09875000 5.29675007 0.09450000 159 160 180 32114
-0.09875000 5.29650021 0.09550000 159 160 180 31225
-0.09875000 5.29650021 0.09650000 159 160 180 31885
-0.09875000 5.29600000 0.09950000 160 163 178 32117
-0.09875000 5.29524994 0.10050000 160 163 178 31671
-0.09875000 5.29449987 0.10250000 158 162 174 27532
-0.09875000 5.29449987 0.10350000 158 162 171 22817
-0.09850000 5.32375002 0.00325000 94 71 57 1200
-0.09825000 5.32100010 0.00925000 129 119 120 12010
-0.09825000 5.32149982 0.01025000 129 119 120 21150
-0.09825000 5.32049990 0.01125000 130 125 131 28342
-0.09825000 5.32075024 0.01225000 130 125 131 30864
-0.09825000 5.32025003 0.01425000 127 126 134 31735
-0.09825000 5.31925011 0.01525000 134 134 144 32196
-0.09825000 5.31949997 0.01625000 134 134 144 32542
-0.09825000 5.31974983 0.01725000 138 140 153 30971
-0.09825000 5.31774998 0.02025000 138 139 157 30564
-0.09825000 5.31774998 0.02125000 138 139 157 30464
-0.09825000 5.31750011 0.02225000 141 142 162 31203
-0.09825000 5.31699991 0.02325000 141 142 162 30467
-0.09825000 5.31724977 0.02425000 145 146 166 30467
-0.09825000 5.31699991 0.02525000 145 146 166 32210
-0.09825000 5.31675005 0.02625000 153 151 172 30675
-0.09825000 5.31575012 0.02725000 153 151 172 28728
-0.09825000 5.31524992 0.02925000 155 153 174 20185
-0.09825000 5.31599998 0.03025000 155 153 174 14289
-0.09825000 5.31624985 0.03125000 143 140 161 8514
-0.09825000 5.31449986 0.03325000 116 111 133 2896
-0.09825000 5.31150007 0.04725000 61 36 65 1700
-0.09825000 5.30999994 0.05125000 65 34 65 1657
-0.09800000 5.30625010 0.06000000 63 35 60 1625
-0.09800000 5.30574989 0.06400000 63 37 64 1707
-0.09800000 5.30324984 0.07100000 63 40 66 1750
-0.09800000 5.30224991 0.07500000 64 46 72 1996
-0.09800000 5.29925013 0.08300000 60 46 72 8567
-0.09800000 5.29949999 0.08400000 94 80 106 15875
-0.09800000 5.30049992 0.08500000 94 80 106 22910
-0.09800000 5.29974985 0.08700000 134 121 147 29967
-0.09800000 5.29825020 0.08900000 156 146 171 31874
-0.09800000 5.29925013 0.09000000 156 146 171 31424
-0.09800000 5.29799986 0.09100000 160 158 180 31432
-0.09800000 5.29850006 0.09200000 160 158 180 31989
-0.09800000 5.29650021 0.09600000 161 164 183 32000
-0.09775000 5.29575014 0.09900000 156 162 178 33542
-0.09775000 5.29575014 0.10000000 156 162 178 33796
-0.09775000 5.29475021 0.10100000 156 162 178 30092
-0.09775000 5.29400015 0.10275000 155 161 175 25810
-0.09775000 5.29374981 0.10375000 158 165 175 22939
-0.09775000 5.29425001 0.10475000 158 165 175 14750
-0.09725000 5.32275009 0.00875000 129 119 120 5510
-0.09725000 5.32049990 0.01175000 130 125 131 30757
-0.09725000 5.32100010 0.01275000 127 126 134 30864
-0.09725000 5.32049990 0.01375000 127 126 134 32074
-0.09725000 5.31925011 0.01575000 134 134 144 30353
-0.09725000 5.31874990 0.01675000 134 134 144 30253
-0.09725000 5.31850004 0.01775000 138 140 153 30157
-0.09725000 5.31874990 0.01875000 138 140 153 32546
-0.09725000 5.31850004 0.01975000 138 139 157 32546
-0.09725000 5.31825018 0.02075000 138 139 157 32435
-0.09725000 5.31850004 0.02175000 141 142 162 31524
-0.09725000 5.31724977 0.02275000 141 142 162 32675
-0.09725000 5.31750011 0.02375000 145 146 166 32321
-0.09725000 5.31724977 0.02475000 145 146 166 32210
-0.09725000 5.31699991 0.02675000 153 151 172 28275
-0.09725000 5.31500006 0.02975000 155 153 174 24250
-0.09725000 5.31524992 0.03175000 143 140 161 10700
-0.09725000 5.31524992 0.03275000 116 111 133 5800
-0.09725000 5.31300020 0.03975000 63 49 74 1907
-0.09725000 5.30999994 0.04975000 63 34 64 1653
-0.09700000 5.30800009 0.05475000 63 33 61 1621
-0.09700000 5.30700016 0.06175000 64 36 61 1732
-0.09700000 5.30499983 0.06875000 63 39 65 1846
-0.09700000 5.30249977 0.07875000 63 47 73 2428
-0.09700000 5.30000019 0.08250000 60 46 72 12325
-0.09700000 5.29974985 0.08350000 94 80 106 18653
-0.09700000 5.29949999 0.08450000 94 80 106 26385
-0.09700000 5.30000019 0.08550000 94 80 106 32910
-0.09700000 5.29949999 0.08650000 134 121 147 34678
-0.09700000 5.29949999 0.08750000 134 121 147 34942
-0.09700000 5.29974985 0.08850000 156 146 171 32910
-0.09700000 5.29825020 0.09250000 160 163 182 32678
-0.09700000 5.29775000 0.09350000 160 163 182 33410
-0.09700000 5.29675007 0.09450000 161 164 183 34300
-0.09700000 5.29650021 0.09550000 161 164 183 34960
-0.09675000 5.29575014 0.09950000 156 162 178 33057
-0.09675000 5.29500008 0.10050000 156 162 178 32010
-0.09675000 5.29449987 0.10150000 155 161 175 30196
-0.09675000 5.29524994 0.10250000 155 161 175 30703
-0.09675000 5.29400015 0.10350000 158 165 175 28853
-0.09675000 5.29400015 0.10450000 158 165 175 23285
-0.09625000 5.32124996 0.00825000 130 123 130 12010
-0.09625000 5.32049990 0.01025000 130 123 130 29646
-0.09625000 5.32049990 0.01125000 130 128 139 29353
-0.09625000 5.31974983 0.01325000 131 133 146 30657
-0.09625000 5.31974983 0.01625000 134 140 154 32778
-0.09625000 5.31874990 0.01725000 135 142 158 33389
-0.09625000 5.31825018 0.01825000 135 142 158 32435
-0.09625000 5.31925011 0.01925000 140 145 164 34021
-0.09625000 5.31899977 0.02025000 140 145 164 33764
-0.09625000 5.31750011 0.02125000 140 145 164 33650
-0.09625000 5.31724977 0.02225000 143 146 165 32796
-0.09625000 5.31750011 0.02425000 141 144 163 33650
-0.09625000 5.31624985 0.02525000 141 144 163 30892
-0.09625000 5.31624985 0.02625000 140 143 162 29871
-0.09625000 5.31599998 0.02725000 140 143 162 29285
-0.09625000 5.31599998 0.02825000 145 148 167 29382
-0.09625000 5.31524992 0.02925000 145 148 167 29007
-0.09625000 5.31475019 0.03025000 145 148 167 25778
-0.09625000 5.31549978 0.03225000 149 150 170 13167
-0.09625000 5.31524992 0.03325000 138 136 157 8007
-0.09625000 5.31475019 0.03425000 138 136 157 4457
-0.09625000 5.31274986 0.04325000 58 44 69 1632
-0.09600000 5.30574989 0.06500000 63 37 62 1707
-0.09600000 5.30299997 0.07600000 60 44 70 1853
-0.09600000 5.30074978 0.08200000 83 73 97 15000
-0.09600000 5.30100012 0.08300000 83 73 97 20850
-0.09600000 5.29974985 0.08400000 118 110 134 27175
-0.09600000 5.30025005 0.08500000 118 110 134 29671
-0.09600000 5.29874992 0.08600000 152 144 168 33903
-0.09600000 5.29899979 0.08800000 165 162 183 33521
-0.09600000 5.29775000 0.08900000 165 162 183 32925
-0.09600000 5.29724979 0.09000000 165 162 183 32807
-0.09600000 5.29850006 0.09200000 159 160 180 32100
-0.09600000 5.29775000 0.09300000 157 162 181 31432
-0.09600000 5.29724979 0.09400000 157 162 181 32110
-0.09600000 5.29724979 0.09600000 157 162 181 34428
-0.09600000 5.29675007 0.09700000 155 160 179 33789
-0.09600000 5.29675007 0.09800000 155 160 179 33660
-0.09600000 5.29524994 0.10000000 153 159 175 33060
-0.09600000 5.29575014 0.10100000 153 159 175 32003
-0.09600000 5.29524994 0.10200000 153 159 173 31021
-0.09575000 5.29425001 0.10275000 153 159 173 30921
-0.09600000 5.29500008 0.10375000 156 162 174 29317
-0.09575000 5.29300022 0.10475000 156 162 174 24357
-0.09575000 5.29374981 0.10575000 158 165 175 15125
-0.09525000 5.32200003 0.00775000 119 107 109 4900
-0.09525000 5.32175016 0.00875000 130 123 130 21300
-0.09525000 5.32100010 0.01075000 130 128 139 31071
-0.09525000 5.32124996 0.01275000 131 133 146 30342
-0.09525000 5.31925011 0.01475000 134 140 154 32310
-0.09525000 5.31949997 0.01575000 134 140 154 33139
-0.09525000 5.31899977 0.01675000 134 140 154 31857
-0.09525000 5.32000017 0.01775000 135 142 158 32425
-0.09525000 5.31874990 0.01975000 140 145 164 32432
-0.09525000 5.31799984 0.02075000 140 145 164 32789
-0.09525000 5.31799984 0.02175000 143 146 165 35225
-0.09525000 5.31825018 0.02275000 143 146 165 35500
-0.09525000 5.31825018 0.02375000 141 144 163 34028
-0.09525000 5.31650019 0.02475000 141 144 163 32921
-0.09525000 5.31750011 0.02575000 140 143 162 33153
-0.09525000 5.31699991 0.02675000 140 143 162 32796
-0.09525000 5.31624985 0.02775000 140 143 162 32103
-0.09525000 5.31524992 0.02875000 145 148 167 30175
-0.09525000 5.31524992 0.02975000 145 148 167 29007
-0.09525000 5.31424999 0.03175000 149 150 170 21232
-0.09525000 5.31475019 0.03275000 138 136 157 15796
-0.09500000 5.30975008 0.04975000 61 35 64 1914
-0.09500000 5.30824995 0.05375000 63 33 61 1503
-0.09500000 5.30700016 0.05775000 64 34 60 1939
-0.09500000 5.30600023 0.06175000 64 36 61 1589
-0.09500000 5.30700016 0.06375000 63 37 62 1564
-0.09500000 5.30474997 0.06775000 63 39 65 1832
-0.09500000 5.30399990 0.07375000 59 41 65 1671
-0.09500000 5.30149984 0.07575000 60 44 70 1774
-0.09500000 5.30224991 0.07675000 60 44 70 2064
-0.09500000 5.30249977 0.07875000 60 46 71 3082
-0.09500000 5.30100012 0.08075000 63 51 75 12442
-0.09500000 5.30175018 0.08175000 83 73 97 18610
-0.09500000 5.30074978 0.08275000 83 73 97 24317
-0.09500000 5.30049992 0.08375000 118 110 134 29003
-0.09500000 5.30049992 0.08450000 118 110 134 30882
-0.09500000 5.30000019 0.08550000 118 110 134 31096
-0.09475000 5.29899979 0.08650000 152 144 168 31000
-0.09500000 5.30000019 0.08750000 152 144 168 33514
-0.09475000 5.29925013 0.08850000 165 162 183 34942
-0.09475000 5.29949999 0.08950000 165 162 183 34810
-0.09475000 5.29874992 0.09050000 159 160 180 33157
-0.09475000 5.29750013 0.09350000 157 162 181 33910
-0.09475000 5.29624987 0.09450000 157 162 181 33175
-0.09475000 5.29750013 0.09550000 157 162 181 33164
-0.09475000 5.29724979 0.09650000 157 162 181 33167
-0.09475000 5.29624987 0.09750000 155 160 179 33667
-0.09475000 5.29675007 0.09850000 155 160 179 32339
-0.09475000 5.29624987 0.09950000 153 159 175 31017
-0.09475000 5.29449987 0.10050000 153 159 175 31239
-0.09475000 5.29549980 0.10150000 153 159 173 30703
-0.09475000 5.29549980 0.10250000 153 159 173 29889
-0.09475000 5.29449987 0.10350000 156 162 174 29321
-0.09475000 5.29425001 0.10450000 156 162 174 28575
-0.09475000 5.29475021 0.10550000 156 162 174 22989
-0.09475000 5.29349995 0.10650000 158 165 175 13725
-0.09425000 5.32224989 0.00725000 123 111 115 12389
-0.09425000 5.32124996 0.00925000 129 121 132 28339
-0.09425000 5.32224989 0.01025000 129 121 132 31278
-0.09425000 5.32049990 0.01125000 132 131 145 31960
-0.09425000 5.32075024 0.01225000 132 131 145 33257
-0.09425000 5.32075024 0.01325000 135 141 157 32532
-0.09425000 5.32025003 0.01425000 135 141 157 31407
-0.09425000 5.31874990 0.01725000 135 143 162 29950
-0.09425000 5.31874990 0.01925000 140 147 165 31632
-0.09425000 5.31799984 0.02025000 140 147 165 31528
-0.09425000 5.31799984 0.02125000 140 147 165 32439
-0.09425000 5.31799984 0.02325000 144 149 168 32203
-0.09425000 5.31724977 0.02425000 141 146 165 33153
-0.09425000 5.31650019 0.02525000 141 146 165 32560
-0.09425000 5.31675005 0.02725000 136 141 160 32678
-0.09425000 5.31549978 0.02825000 138 143 162 32335
-0.09425000 5.31549978 0.02925000 138 143 162 33292
-0.09425000 5.31575012 0.03025000 138 143 162 30071
-0.09425000 5.31500006 0.03125000 146 151 170 26932
-0.09425000 5.31500006 0.03225000 146 151 170 24921
-0.09425000 5.31449986 0.03325000 146 149 168 19785
-0.09425000 5.31524992 0.03525000 141 139 160 6653
-0.09425000 5.31400013 0.03625000 141 139 160 3850
-0.09425000 5.31274986 0.03825000 113 110 131 2207
-0.09425000 5.31325006 0.04125000 88 80 103 1975
-0.09400000 5.30700016 0.06000000 64 36 59 1600
-0.09400000 5.30574989 0.06200000 65 37 60 1664
-0.09400000 5.30324984 0.07100000 61 43 67 1617
-0.09400000 5.30350018 0.07200000 61 43 67 1589
-0.09400000 5.30399990 0.07300000 63 49 72 1685
-0.09400000 5.30149984 0.07600000 55 43 65 2110
-0.09400000 5.30149984 0.07900000 86 78 101 8157
-0.09400000 5.30200005 0.08000000 86 78 101 15675
-0.09400000 5.30049992 0.08200000 118 113 135 27417
-0.09400000 5.30074978 0.08300000 118 113 135 29960
-0.09400000 5.30074978 0.08400000 142 139 160 30364
-0.09400000 5.29925013 0.08500000 142 139 160 30475
-0.09400000 5.29874992 0.08600000 156 154 175 31428
-0.09400000 5.29825020 0.08700000 156 154 175 31874
-0.09400000 5.29850006 0.08800000 162 163 183 33278
-0.09400000 5.29899979 0.08900000 162 163 183 34550
-0.09400000 5.29874992 0.09200000 154 157 176 34417
-0.09400000 5.29799986 0.09300000 154 160 176 32921
-0.09400000 5.29724979 0.09400000 154 160 176 32689
-0.09400000 5.29624987 0.09600000 155 161 177 33539
-0.09400000 5.29575014 0.09700000 154 161 177 33296
-0.09400000 5.29650021 0.09800000 154 161 177 31442
-0.09400000 5.29624987 0.09900000 154 161 177 31335
-0.09400000 5.29600000 0.10000000 154 161 177 31442
-0.09400000 5.29500008 0.10275000 154 161 177 29503
-0.09375000 5.29425001 0.10375000 155 163 176 30000
-0.09375000 5.29425001 0.10475000 155 163 176 28310
-0.09375000 5.29425001 0.10575000 156 162 174 23592
-0.09325000 5.32350016 0.00675000 123 111 115 3710
-0.09325000 5.32100010 0.00875000 129 121 132 28249
-0.09325000 5.32100010 0.00975000 129 121 132 29935
-0.09325000 5.32100010 0.01175000 132 131 145 33625
-0.09325000 5.32100010 0.01275000 135 141 157 34396
-0.09325000 5.32149982 0.01375000 135 141 157 33621
-0.09325000 5.31974983 0.01475000 136 145 162 32660
-0.09325000 5.31874990 0.01675000 136 145 162 32907
-0.09325000 5.32000017 0.01875000 135 143 162 32192
-0.09325000 5.31799984 0.01975000 140 147 165 31092
-0.09325000 5.31774998 0.02175000 144 149 168 32321
-0.09325000 5.31724977 0.02275000 144 149 168 31096
-0.09325000 5.31699991 0.02375000 141 146 165 30782
-0.09325000 5.31825018 0.02475000 141 146 165 31864
-0.09325000 5.31624985 0.02575000 141 146 165 32564
-0.09325000 5.31675005 0.02675000 136 141 160 31428
-0.09325000 5.31650019 0.02775000 136 141 160 31989
-0.09325000 5.31575012 0.02875000 138 143 162 32217
-0.09325000 5.31575012 0.02975000 138 143 162 31992
-0.09325000 5.31549978 0.03075000 146 151 170 30682
-0.09325000 5.31599998 0.03175000 146 151 170 31432
-0.09325000 5.31400013 0.03275000 146 149 168 28110
-0.09325000 5.31475019 0.03375000 146 149 168 22957
-0.09325000 5.31400013 0.03475000 141 139 160 15553
-0.09325000 5.31349993 0.03675000 141 139 160 5225
-0.09300000 5.30350018 0.07375000 63 49 72 1774
-0.09300000 5.30249977 0.07775000 59 50 71 5742
-0.09300000 5.30200005 0.07975000 86 78 101 19792
-0.09300000 5.30000019 0.08350000 142 139 160 33396
-0.09300000 5.29974985 0.08450000 142 139 160 35357
-0.09300000 5.29974985 0.08550000 142 139 160 33767
-0.09300000 5.29925013 0.08750000 156 154 175 34025
-0.09300000 5.29850006 0.09050000 154 157 176 31214
-0.09300000 5.29850006 0.09150000 154 157 176 31650
-0.09300000 5.29850006 0.09250000 154 160 176 31985
-0.09275000 5.29675007 0.09350000 154 160 176 31557
-0.09275000 5.29724979 0.09450000 155 161 177 31882
-0.09275000 5.29699993 0.09550000 155 161 177 33414
-0.09275000 5.29724979 0.09650000 155 161 177 31550
-0.09275000 5.29624987 0.09750000 154 161 177 30189
-0.09275000 5.29600000 0.09850000 154 161 177 29117
-0.09275000 5.29624987 0.09950000 154 161 177 31228
-0.09275000 5.29524994 0.10150000 154 161 177 31232
-0.09275000 5.29425001 0.10550000 155 163 176 28853
-0.09275000 5.29449987 0.10650000 156 162 174 22150
-0.09250000 5.32425022 0.00125000 109 79 68 2585
-0.09225000 5.32299995 0.00725000 123 111 115 19125
-0.09225000 5.32200003 0.00825000 129 121 132 27717
-0.09225000 5.32149982 0.00925000 129 121 132 29642
-0.09225000 5.32124996 0.01025000 129 121 132 29935
-0.09225000 5.32100010 0.01125000 132 131 145 32296
-0.09225000 5.32175016 0.01225000 132 131 145 33496
-0.09225000 5.32124996 0.01325000 135 141 157 32296
-0.09225000 5.32124996 0.01425000 135 141 157 31400
-0.09225000 5.32025003 0.01525000 136 145 162 33014
-0.09225000 5.31949997 0.01625000 136 145 162 32542
-0.09225000 5.31974983 0.01725000 135 143 162 33635
-0.09225000 5.31899977 0.01825000 135 143 162 32546
-0.09225000 5.31874990 0.01925000 140 147 165 31857
-0.09225000 5.31825018 0.02125000 140 147 165 33392
-0.09225000 5.31699991 0.02325000 144 149 168 30989
-0.09225000 5.31724977 0.02425000 141 146 165 31753
-0.09225000 5.31675005 0.02525000 141 146 165 33039
-0.09225000 5.31774998 0.02625000 136 141 160 34814
-0.09225000 5.31575012 0.02725000 136 141 160 32807
-0.09225000 5.31724977 0.02825000 138 143 162 31203
-0.09225000 5.31575012 0.03025000 138 143 162 31653
-0.09225000 5.31575012 0.03125000 146 151 170 31435
-0.09225000 5.31449986 0.03225000 146 151 170 30182
-0.09225000 5.31549978 0.03325000 146 149 168 29478
-0.09225000 5.31449986 0.03425000 146 149 168 24925
-0.09225000 5.31374979 0.03625000 141 139 160 11435
-0.09225000 5.31325006 0.03725000 113 110 131 6921
-0.09225000 5.31400013 0.03825000 113 110 131 3867
-0.09200000 5.30700016 0.06100000 64 36 59 1585
-0.09200000 5.30474997 0.07100000 61 43 67 1928
-0.09200000 5.30299997 0.07700000 59 50 71 6564
-0.09200000 5.30275011 0.07800000 59 50 71 12732
-0.09200000 5.30124998 0.07900000 86 78 101 18846
-0.09200000 5.30149984 0.08000000 86 78 101 26146
-0.09200000 5.30149984 0.08100000 86 78 101 30767
-0.09200000 5.30025005 0.08400000 142 139 160 32432
-0.09200000 5.30049992 0.08500000 142 139 160 32785
-0.09200000 5.29874992 0.08800000 162 163 183 33778
-0.09200000 5.29925013 0.09000000 162 163 183 32914
-0.09200000 5.29775000 0.09100000 154 157 176 31007
-0.09200000 5.29724979 0.09200000 154 157 176 30489
-0.09200000 5.29825020 0.09300000 154 160 176 30685
-0.09200000 5.29675007 0.09500000 155 161 177 30907
-0.09200000 5.29650021 0.09600000 155 161 177 30696
-0.09200000 5.29675007 0.09900000 154 161 177 31332
-0.09200000 5.29575014 0.10000000 154 161 177 33425
-0.09200000 5.29549980 0.10100000 154 161 177 32350
-0.09200000 5.29549980 0.10300000 154 161 177 31671
-0.09175000 5.29500008 0.10375000 155 163 176 32124
-0.09175000 5.29500008 0.10475000 155 163 176 32939
-0.09175000 5.29475021 0.10575000 156 162 174 29503
-0.09175000 5.29400015 0.10675000 156 162 174 22260
-0.09125000 5.32250023 0.00675000 126 113 120 20567
-0.09125000 5.32175016 0.00775000 126 113 120 29735
-0.09125000 5.32175016 0.00875000 127 121 133 33367
-0.09125000 5.32075024 0.01075000 135 134 150 31732
-0.09125000 5.32149982 0.01175000 135 134 150 33625
-0.09125000 5.32149982 0.01275000 139 144 163 34525
-0.09125000 5.32049990 0.01375000 139 144 163 34796
-0.09125000 5.32124996 0.01475000 135 146 164 33007
-0.09125000 5.32000017 0.01575000 135 146 164 32657
-0.09125000 5.32025003 0.01675000 135 146 164 33014
-0.09125000 5.32025003 0.01775000 134 145 165 32657
-0.09125000 5.31974983 0.01875000 134 145 165 32307
-0.09125000 5.31825018 0.02075000 136 144 163 31635
-0.09125000 5.31874990 0.02175000 142 151 168 31524
-0.09125000 5.31825018 0.02275000 142 151 168 33517
-0.09125000 5.31699991 0.02375000 145 154 171 33282
-0.09125000 5.31724977 0.02475000 145 154 171 32557
-0.09125000 5.31675005 0.02675000 143 152 169 30675
-0.09125000 5.31599998 0.02875000 143 152 169 30896
-0.09125000 5.31449986 0.03175000 146 153 171 32575
-0.09125000 5.31449986 0.03375000 147 152 171 30385
-0.09125000 5.31349993 0.03475000 148 151 170 26860
-0.09125000 5.31424999 0.03575000 148 151 170 20278
-0.09125000 5.31349993 0.03775000 146 144 165 9064
-0.09125000 5.31349993 0.03875000 146 144 165 4975
-0.09125000 5.31250000 0.03975000 118 113 135 2742
-0.09125000 5.31199980 0.04075000 118 113 135 2300
-0.09100000 5.30875015 0.05675000 66 36 62 1657
-0.09100000 5.30474997 0.07175000 60 45 66 2225
-0.09100000 5.30324984 0.07275000 65 53 73 2171
-0.09100000 5.30299997 0.07375000 65 53 73 2225
-0.09100000 5.30200005 0.07675000 61 52 73 10489
-0.09100000 5.30224991 0.07775000 76 71 91 16907
-0.09100000 5.30175018 0.07975000 115 112 131 26453
-0.09100000 5.30100012 0.08050000 115 112 131 30057
-0.09100000 5.30100012 0.08175000 148 147 165 32314
-0.09100000 5.30025005 0.08550000 158 159 179 33267
-0.09100000 5.29949999 0.08850000 156 162 178 32210
-0.09100000 5.29775000 0.08950000 156 162 178 31878
-0.09100000 5.29724979 0.09150000 153 159 175 29882
-0.09100000 5.29775000 0.09250000 154 161 177 30689
-0.09100000 5.29825020 0.09350000 154 161 177 31760
-0.09100000 5.29699993 0.09450000 155 162 178 30082
-0.09100000 5.29675007 0.09550000 155 162 178 30389
-0.09100000 5.29699993 0.09650000 155 162 178 30796
-0.09100000 5.29624987 0.09850000 157 164 180 30800
-0.09100000 5.29650021 0.09950000 157 166 181 32932
-0.09075000 5.29575014 0.10050000 157 166 181 33796
-0.09075000 5.29575014 0.10150000 157 166 181 33921
-0.09075000 5.29475021 0.10250000 157 166 181 32353
-0.09075000 5.29425001 0.10350000 157 165 178 32707
-0.09075000 5.29500008 0.10450000 157 165 178 31025
-0.09075000 5.29425001 0.10750000 157 165 176 20682
-0.09025000 5.32224989 0.00525000 116 96 98 8760
-0.09025000 5.32175016 0.00825000 127 121 133 32414
-0.09025000 5.32175016 0.00925000 127 121 133 31953
-0.09025000 5.32175016 0.01025000 127 121 133 29835
-0.09025000 5.32124996 0.01125000 135 134 150 29839
-0.09025000 5.32000017 0.01625000 135 146 164 34017
-0.09025000 5.31974983 0.01725000 134 145 165 32307
-0.09025000 5.31925011 0.01825000 134 145 165 30253
-0.09025000 5.31899977 0.02025000 136 144 163 31857
-0.09025000 5.31750011 0.02225000 142 151 168 33903
-0.09025000 5.31699991 0.02325000 142 151 168 33907
-0.09025000 5.31650019 0.02525000 145 154 171 31989
-0.09025000 5.31599998 0.02625000 143 152 169 31764
-0.09025000 5.31575012 0.02725000 143 152 169 31542
-0.09025000 5.31624985 0.02825000 143 152 169 32803
-0.09025000 5.31699991 0.02925000 143 152 169 31642
-0.09025000 5.31500006 0.03025000 143 152 169 31217
-0.09025000 5.31575012 0.03125000 146 153 171 31992
-0.09025000 5.31475019 0.03225000 146 153 171 32114
-0.09025000 5.31475019 0.03325000 147 152 171 31114
-0.09025000 5.31475019 0.03425000 147 152 171 29482
-0.09025000 5.31475019 0.03525000 148 151 170 27850
-0.09025000 5.31500006 0.03625000 148 151 170 24853
-0.09025000 5.31274986 0.03725000 146 144 165 19285
-0.09025000 5.31349993 0.03825000 146 144 165 12460
-0.09025000 5.31374979 0.03925000 118 113 135 7224
-0.09025000 5.31374979 0.04025000 118 113 135 4017
-0.09025000 5.31150007 0.04225000 84 74 98 2257
-0.09000000 5.30824995 0.05500000 66 36 62 1807
-0.09000000 5.30824995 0.05825000 68 36 60 1600
-0.09000000 5.30674982 0.06100000 67 37 61 1760
-0.09000000 5.30324984 0.07000000 63 44 66 2075
-0.09000000 5.30324984 0.07200000 60 45 66 2410
-0.09000000 5.30399990 0.07400000 65 53 73 3275
-0.09000000 5.30350018 0.07500000 61 52 73 6621
-0.09000000 5.30149984 0.07700000 76 71 91 19796
-0.09000000 5.30100012 0.07800000 76 71 91 26457
-0.09000000 5.30175018 0.07900000 115 112 131 29957
-0.09000000 5.30149984 0.08000000 115 112 131 30878
-0.09000000 5.30074978 0.08200000 148 147 165 32089
-0.09000000 5.30000019 0.08300000 148 147 165 31864
-0.09000000 5.30049992 0.08400000 158 159 179 33028
-0.09000000 5.29925013 0.08500000 158 159 179 32675
-0.09000000 5.29925013 0.08600000 157 160 179 32560
-0.09000000 5.29949999 0.08800000 156 162 178 32210
-0.09000000 5.29825020 0.09000000 156 162 178 31107
-0.09000000 5.29799986 0.09100000 153 159 175 29582
-0.09000000 5.29874992 0.09200000 153 159 175 30275
-0.09000000 5.29650021 0.09300000 154 161 177 31664
-0.09000000 5.29825020 0.09400000 154 161 177 32567
-0.09000000 5.29699993 0.09500000 155 162 178 31439
-0.09000000 5.29750013 0.09600000 155 162 178 32453
-0.09000000 5.29575014 0.10000000 157 166 181 31778
-0.09000000 5.29600000 0.10100000 157 166 181 32935
-0.09000000 5.29524994 0.10200000 157 166 181 32585
-0.09000000 5.29500008 0.10275000 157 166 181 34053
-0.09000000 5.29524994 0.10375000 157 165 178 32585
-0.08975000 5.29400015 0.10475000 157 165 178 30403
-0.08975000 5.29425001 0.10575000 157 165 176 29039
-0.08975000 5.29400015 0.10675000 157 165 176 27964
-0.08975000 5.29349995 0.10875000 155 162 172 12192
-0.08925000 5.32375002 0.00475000 124 101 107 8328
-0.08925000 5.32200003 0.00975000 133 125 138 32064
-0.08925000 5.32149982 0.01075000 139 138 154 30542
-0.08925000 5.32000017 0.01375000 139 144 164 31078
-0.08925000 5.32075024 0.01475000 132 143 163 31846
-0.08925000 5.32025003 0.01575000 132 143 163 33632
-0.08925000 5.31949997 0.01675000 132 143 163 31628
-0.08925000 5.31899977 0.01775000 135 148 167 30660
-0.08925000 5.31799984 0.02175000 138 146 165 35364
-0.08925000 5.31774998 0.02275000 138 146 165 35364
-0.08925000 5.31675005 0.02475000 142 150 169 33907
-0.08925000 5.31624985 0.02675000 147 155 174 32450
-0.08925000 5.31650019 0.02775000 147 155 174 34428
-0.08925000 5.31599998 0.02875000 147 155 174 33535
-0.08925000 5.31675005 0.02975000 147 155 174 31207
-0.08925000 5.31524992 0.03075000 145 153 172 30482
-0.08925000 5.31500006 0.03175000 145 153 172 32339
-0.08925000 5.31524992 0.03275000 146 153 172 34050
-0.08925000 5.31449986 0.03375000 146 153 172 32696
-0.08925000 5.31449986 0.03575000 151 156 176 29778
-0.08925000 5.31374979 0.03675000 151 156 176 26860
-0.08925000 5.31349993 0.03775000 158 159 180 22617
-0.08925000 5.31274986 0.03875000 158 159 180 14871
-0.08925000 5.31199980 0.04275000 119 111 135 2521
-0.08900000 5.31075001 0.04575000 91 77 103 2117
-0.08900000 5.30574989 0.06175000 68 40 62 1889
-0.08900000 5.30424976 0.06875000 63 46 65 2117
-0.08900000 5.30324984 0.07275000 67 58 77 2975
-0.08900000 5.30200005 0.07575000 88 81 99 17100
-0.08900000 5.30275011 0.07675000 88 81 99 23675
-0.08900000 5.30275011 0.07775000 117 114 131 29850
-0.08900000 5.30149984 0.08175000 157 160 177 29278
-0.08900000 5.30124998 0.08275000 157 160 177 30878
-0.08900000 5.30100012 0.08375000 161 167 183 31414
-0.08900000 5.30074978 0.08450000 161 167 183 31414
-0.08900000 5.29899979 0.08550000 161 167 183 31428
-0.08900000 5.29925013 0.08650000 157 164 180 31000
-0.08900000 5.29974985 0.08850000 153 160 176 31421
-0.08900000 5.29925013 0.08950000 153 160 176 31871
-0.08900000 5.29775000 0.09150000 156 164 177 30178
-0.08900000 5.29850006 0.09250000 156 164 177 30378
-0.08900000 5.29699993 0.09350000 156 164 177 29882
-0.08900000 5.29699993 0.09450000 155 163 176 30903
-0.08900000 5.29750013 0.09550000 155 163 176 31882
-0.08875000 5.29624987 0.09750000 154 164 176 32117
-0.08875000 5.29600000 0.09850000 154 164 176 31017
-0.08875000 5.29600000 0.09950000 155 164 179 31339
-0.08875000 5.29575014 0.10150000 156 165 180 30803
-0.08875000 5.29400015 0.10250000 156 165 180 32828
-0.08875000 5.29500008 0.10350000 156 166 178 34053
-0.08875000 5.29425001 0.10550000 156 166 178 31571
-0.08875000 5.29300022 0.10650000 157 165 176 30717
-0.08875000 5.29349995 0.10850000 156 163 173 18564
-0.08875000 5.29349995 0.10950000 156 163 173 9425
-0.08825000 5.32299995 0.00525000 124 101 107 15342
-0.08825000 5.32224989 0.00625000 133 117 127 24957
-0.08825000 5.32175016 0.00725000 133 117 127 30439
-0.08825000 5.32175016 0.00825000 133 125 138 32292
-0.08825000 5.32100010 0.00925000 133 125 138 33010
-0.08825000 5.32075024 0.01025000 133 125 138 32653
-0.08825000 5.32124996 0.01125000 139 138 154 32185
-0.08825000 5.32000017 0.01425000 139 144 164 30971
-0.08825000 5.32075024 0.01525000 132 143 163 31510
-0.08825000 5.32025003 0.01625000 132 143 163 32539
-0.08825000 5.31949997 0.01725000 135 148 167 32082
-0.08825000 5.31874990 0.01925000 136 147 165 32907
-0.08825000 5.31774998 0.02025000 136 147 165 33650
-0.08825000 5.31825018 0.02125000 136 147 165 34153
-0.08825000 5.31825018 0.02225000 138 146 165 33150
-0.08825000 5.31699991 0.02325000 138 146 165 33039
-0.08825000 5.31699991 0.02425000 142 150 169 34689
-0.08825000 5.31724977 0.02525000 142 150 169 34689
-0.08825000 5.31599998 0.02625000 147 155 174 33164
-0.08825000 5.31575012 0.02825000 147 155 174 34303
-0.08825000 5.31549978 0.02925000 147 155 174 33167
-0.08825000 5.31549978 0.03025000 147 155 174 32928
-0.08825000 5.31624985 0.03125000 145 153 172 33407
-0.08825000 5.31475019 0.03225000 145 153 172 33417
-0.08825000 5.31500006 0.03325000 146 153 172 32457
-0.08825000 5.31424999 0.03425000 146 153 172 31553
-0.08825000 5.31424999 0.03525000 151 156 176 31117
-0.08825000 5.31325006 0.03625000 151 156 176 29889
-0.08825000 5.31325006 0.03725000 158 159 180 26546
-0.08825000 5.31274986 0.03825000 158 159 180 23753
-0.08825000 5.31374979 0.03925000 145 141 164 18153
-0.08825000 5.31225014 0.04125000 145 141 164 6346
-0.08825000 5.31250000 0.04325000 119 111 135 2532
-0.08800000 5.31075001 0.05025000 68 45 74 1771
-0.08800000 5.30950022 0.05425000 66 37 67 1692
-0.08800000 5.30849981 0.05725000 69 37 60 1803
-0.08800000 5.30275011 0.07400000 67 58 77 11996
-0.08800000 5.30375004 0.07500000 88 81 99 18682
-0.08800000 5.30324984 0.07600000 88 81 99 24775
-0.08800000 5.30275011 0.07700000 117 114 131 27078
-0.08800000 5.30224991 0.07900000 141 142 160 29557
-0.08800000 5.30200005 0.08000000 141 142 160 30982
-0.08800000 5.30074978 0.08100000 141 142 160 30989
-0.08800000 5.30124998 0.08200000 157 160 177 30878
-0.08800000 5.30100012 0.08300000 157 160 177 31974
-0.08800000 5.30025005 0.08400000 161 167 183 32789
-0.08800000 5.30025005 0.08500000 161 167 183 32207
-0.08800000 5.30000019 0.08600000 157 164 180 32321
-0.08800000 5.29925013 0.08700000 157 164 180 30682
-0.08800000 5.29925013 0.08800000 153 160 176 29775
-0.08800000 5.29825020 0.08900000 153 160 176 31432
-0.08800000 5.29850006 0.09000000 153 160 176 32332
-0.08800000 5.29799986 0.09100000 156 164 177 30585
-0.08800000 5.29799986 0.09200000 156 164 177 30900
-0.08800000 5.29724979 0.09300000 156 164 177 31550
-0.08800000 5.29675007 0.09400000 156 164 177 32810
-0.08800000 5.29724979 0.09600000 155 163 176 31882
-0.08800000 5.29624987 0.09900000 155 164 179 30907
-0.08775000 5.29524994 0.10200000 156 165 180 32353
-0.08775000 5.29524994 0.10375000 156 166 178 32124
-0.08775000 5.29449987 0.10575000 157 165 176 31678
-0.08775000 5.29325008 0.10675000 157 165 176 30614
-0.08775000 5.29425001 0.10775000 156 163 173 25450
-0.08775000 5.29374981 0.10875000 156 163 173 17871
-0.08725000 5.32275009 0.00575000 127 106 113 23578
-0.08725000 5.32149982 0.00875000 137 129 144 31067
-0.08725000 5.32124996 0.01175000 142 141 159 33253
-0.08725000 5.32025003 0.01475000 131 139 162 30553
-0.08725000 5.32025003 0.01675000 131 139 162 33135
-0.08725000 5.31925011 0.01775000 139 146 172 32310
-0.08725000 5.31874990 0.01975000 143 151 172 33514
-0.08725000 5.31774998 0.02475000 134 142 161 32671
-0.08725000 5.31650019 0.02575000 134 142 161 32100
-0.08725000 5.31624985 0.02675000 141 149 168 33660
-0.08725000 5.31699991 0.02775000 141 149 168 33403
-0.08725000 5.31650019 0.02875000 145 153 172 33160
-0.08725000 5.31675005 0.02975000 145 153 172 32328
-0.08725000 5.31549978 0.03075000 142 150 169 32807
-0.08725000 5.31549978 0.03175000 142 150 169 32335
-0.08725000 5.31500006 0.03275000 146 153 172 31439
-0.08725000 5.31400013 0.03375000 146 153 172 29885
-0.08725000 5.31349993 0.03575000 155 160 180 31014
-0.08725000 5.31325006 0.03675000 155 160 180 29303
-0.08725000 5.31325006 0.03775000 155 157 178 29214
-0.08725000 5.31274986 0.03875000 155 157 178 26703
-0.08725000 5.31274986 0.03975000 159 157 179 21439
-0.08725000 5.31274986 0.04075000 159 157 179 13821
-0.08725000 5.31199980 0.04175000 147 142 165 8350
-0.08725000 5.31150007 0.04375000 117 107 132 2867
-0.08725000 5.30999994 0.05275000 54 29 58 1875
-0.08725000 5.30924988 0.05475000 67 39 64 1953
