//X Y Z R G B Intensity
-0.04925000 5.31724977 0.02575000 140 158 170 31100
-0.04925000 5.31850004 0.02675000 142 156 167 33150
-0.04925000 5.31675005 0.02775000 142 156 167 32803
-0.04925000 5.31675005 0.02875000 144 154 163 32217
-0.04925000 5.31650019 0.02975000 144 154 163 31764
-0.04925000 5.31650019 0.03075000 148 153 159 31650
-0.04925000 5.31500006 0.03175000 148 153 159 30385
-0.04925000 5.31549978 0.03275000 154 155 160 30585
-0.04925000 5.31449986 0.03375000 154 155 160 30489
-0.04925000 5.31524992 0.03475000 160 155 162 30585
-0.04925000 5.31449986 0.03575000 160 155 162 28560
-0.04925000 5.31575012 0.03675000 160 155 162 22721
-0.04925000 5.31650019 0.03775000 157 147 156 16135
-0.04925000 5.31549978 0.03875000 157 147 156 9003
-0.04925000 5.31575012 0.03975000 121 107 120 4560
-0.04925000 5.31250000 0.04075000 121 107 120 2664
-0.04925000 5.31250000 0.04175000 90 71 90 2207
-0.04925000 5.31349993 0.04275000 90 71 90 2028
-0.04925000 5.31424999 0.04475000 75 53 76 1925
-0.04925000 5.31300020 0.04575000 75 53 76 1796
-0.04925000 5.31225014 0.04775000 68 43 73 1782
-0.04925000 5.31174994 0.04875000 66 40 75 1839
-0.04925000 5.31125021 0.05075000 69 41 81 1728
-0.04925000 5.31125021 0.05175000 69 41 81 1557
-0.04925000 5.31174994 0.05875000 64 33 67 1596
-0.04925000 5.31075001 0.06175000 68 37 69 1700
-0.04925000 5.31099987 0.06275000 68 37 69 1746
-0.04925000 5.31024981 0.06475000 69 38 69 1892
-0.04900000 5.30749989 0.06675000 66 37 67 1510
-0.04900000 5.30649996 0.06975000 64 40 66 1925
-0.04900000 5.30550003 0.07050000 67 44 70 1946
-0.04900000 5.30600023 0.07175000 67 44 70 2150
-0.04900000 5.30775023 0.07275000 70 52 74 2442
-0.04900000 5.30424976 0.07350000 70 52 74 3657
-0.04900000 5.30424976 0.07450000 65 52 72 5896
-0.04900000 5.30375004 0.07550000 65 52 72 9417
-0.04900000 5.30324984 0.07650000 65 52 72 15146
-0.04900000 5.30324984 0.07750000 73 64 83 20503
-0.04900000 5.30299997 0.07850000 73 64 83 26064
-0.04900000 5.30275011 0.07950000 101 97 112 29085
-0.04900000 5.30224991 0.08050000 101 97 112 29957
-0.04900000 5.30124998 0.08150000 136 135 149 31532
-0.04900000 5.30100012 0.08350000 156 158 170 32907
-0.04900000 5.30049992 0.08450000 156 158 170 33767
-0.04900000 5.29974985 0.08550000 156 158 170 33900
-0.04900000 5.29899979 0.08650000 159 166 176 32800
-0.04900000 5.29974985 0.08750000 159 166 176 30578
-0.04900000 5.29974985 0.08850000 158 164 176 30375
-0.04900000 5.30025005 0.08950000 158 164 176 33642
-0.04900000 5.29949999 0.09050000 159 164 183 34417
-0.04900000 5.29925013 0.09150000 159 164 183 34028
-0.04900000 5.29899979 0.09250000 162 167 187 32217
-0.04900000 5.29925013 0.09350000 162 167 187 31760
-0.04900000 5.29825020 0.09450000 158 163 182 31764
-0.04900000 5.29899979 0.09550000 158 163 182 32442
-0.04900000 5.29724979 0.09650000 158 163 182 33664
-0.04900000 5.29699993 0.09750000 153 160 178 33292
-0.04900000 5.29600000 0.09850000 153 160 178 32121
-0.04900000 5.29699993 0.09950000 157 164 180 32342
-0.04900000 5.29624987 0.10050000 157 164 180 33178
-0.04900000 5.29575014 0.10150000 158 166 179 33060
-0.04900000 5.29500008 0.10250000 158 166 179 32357
-0.04900000 5.29500008 0.10350000 158 164 176 32357
-0.04900000 5.29524994 0.10450000 158 164 176 31782
-0.04900000 5.29524994 0.10550000 158 164 176 31128
-0.04900000 5.29549980 0.10650000 160 167 177 30092
-0.04900000 5.29374981 0.10725000 160 167 177 26575
-0.04900000 5.29475021 0.10850000 156 161 167 16960
-0.04900000 5.29500008 0.10925000 156 161 167 7071
-0.04825000 5.32399988 0.00600000 125 111 111 15553
-0.04825000 5.32275009 0.00700000 125 111 111 23957
-0.04825000 5.32375002 0.00800000 138 128 137 28507
-0.04825000 5.32149982 0.00900000 138 128 137 29842
-0.04825000 5.32075024 0.01000000 138 128 137 30042
-0.04825000 5.32049990 0.01100000 146 144 158 30453
-0.04825000 5.32075024 0.01200000 146 144 158 30971
-0.04825000 5.32075024 0.01300000 145 146 167 30867
-0.04825000 5.32000017 0.01400000 145 146 167 31410
-0.04825000 5.32000017 0.01500000 140 146 172 31296
-0.04825000 5.32025003 0.01600000 140 146 172 32192
-0.04825000 5.31949997 0.01700000 141 151 176 32546
-0.04825000 5.31874990 0.01800000 141 151 176 30564
-0.04825000 5.31949997 0.01925000 141 151 176 29657
-0.04825000 5.31874990 0.02025000 136 155 172 30985
-0.04825000 5.31925011 0.02125000 136 155 172 31971
-0.04825000 5.31874990 0.02200000 137 156 171 31750
-0.04825000 5.31899977 0.02300000 137 156 171 33642
-0.04825000 5.31850004 0.02400000 140 158 170 34032
-0.04825000 5.31825018 0.02500000 140 158 170 32207
-0.04825000 5.31699991 0.02600000 142 156 167 31317
-0.04825000 5.31774998 0.02700000 142 156 167 32442
-0.04825000 5.31650019 0.02800000 144 154 163 32685
-0.04825000 5.31599998 0.02900000 144 154 163 32335
-0.04825000 5.31675005 0.03025000 144 154 163 32103
-0.04825000 5.31699991 0.03125000 148 153 159 30892
-0.04825000 5.31500006 0.03200000 148 153 159 29485
-0.04825000 5.31475019 0.03300000 154 155 160 30285
-0.04825000 5.31475019 0.03400000 154 155 160 28110
-0.04800000 5.31325006 0.03500000 160 155 162 25078
-0.04825000 5.31500006 0.03600000 160 155 162 19703
-0.04825000 5.31449986 0.03700000 157 147 156 14232
-0.04825000 5.31424999 0.03800000 157 147 156 7224
-0.04825000 5.31524992 0.03925000 121 107 120 3428
-0.04800000 5.31225014 0.04200000 90 71 90 1850
-0.04825000 5.31650019 0.04425000 75 53 76 1782
-0.04800000 5.31274986 0.04500000 75 53 76 1735
-0.04800000 5.31225014 0.04800000 66 40 75 1667
-0.04800000 5.31125021 0.04900000 66 40 75 1782
-0.04800000 5.31225014 0.05000000 66 40 75 1700
-0.04800000 5.31374979 0.05100000 69 41 81 1596
-0.04800000 5.31050014 0.05200000 69 41 81 1639
-0.04800000 5.31400013 0.05300000 71 41 79 1692
-0.04800000 5.30900002 0.05400000 71 41 79 1714
-0.04800000 5.31225014 0.05500000 66 34 71 1664
-0.04800000 5.31174994 0.05700000 64 33 67 1507
-0.04800000 5.30700016 0.05900000 64 33 67 1607
-0.04800000 5.30999994 0.06000000 65 34 66 1557
-0.04800000 5.30775023 0.06300000 68 37 69 1567
-0.04800000 5.30900002 0.06400000 69 38 69 1592
-0.04800000 5.30900002 0.06500000 69 38 69 1700
-0.04800000 5.30700016 0.06700000 66 37 67 1485
-0.04800000 5.30574989 0.07000000 64 40 66 1864
-0.04800000 5.30550003 0.07100000 67 44 70 2032
-0.04800000 5.30600023 0.07200000 67 44 70 2200
-0.04800000 5.30824995 0.07300000 70 52 74 2450
-0.04800000 5.30375004 0.07400000 70 52 74 3003
-0.04800000 5.30275011 0.07500000 65 52 72 4321
-0.04800000 5.30399990 0.07600000 65 52 72 6742
-0.04800000 5.30350018 0.07700000 73 64 83 11260
-0.04800000 5.30424976 0.07800000 73 64 83 19317
-0.04800000 5.30399990 0.07900000 73 64 83 25542
-0.04800000 5.30324984 0.08000000 101 97 112 29557
-0.04800000 5.30175018 0.08100000 101 97 112 31089
-0.04800000 5.30175018 0.08200000 136 135 149 32782
-0.04800000 5.30049992 0.08300000 136 135 149 33896
-0.04800000 5.30149984 0.08400000 156 158 170 34146
-0.04800000 5.30149984 0.08500000 156 158 170 33635
-0.04800000 5.30074978 0.08600000 159 166 176 33150
-0.04800000 5.29899979 0.08700000 159 166 176 32332
-0.04800000 5.30000019 0.08800000 158 164 176 33032
-0.04800000 5.30124998 0.08900000 158 164 176 34014
-0.04800000 5.30000019 0.09000000 158 164 176 34678
-0.04800000 5.30074978 0.09100000 159 164 183 34935
-0.04800000 5.29874992 0.09175000 159 164 183 33907
-0.04800000 5.29825020 0.09275000 162 167 187 32685
-0.04800000 5.29825020 0.09375000 162 167 187 30485
-0.04800000 5.29724979 0.09475000 158 163 182 30492
-0.04800000 5.29825020 0.09575000 158 163 182 31764
-0.04800000 5.29675007 0.09675000 153 160 178 32460
-0.04800000 5.29650021 0.09875000 153 160 178 29889
-0.04800000 5.29699993 0.09975000 157 164 180 31014
-0.04800000 5.29575014 0.10075000 157 164 180 32821
-0.04800000 5.29500008 0.10175000 158 166 179 32825
-0.04800000 5.29524994 0.10275000 158 166 179 31453
-0.04800000 5.29600000 0.10375000 158 164 176 31339
-0.04800000 5.29425001 0.10475000 158 164 176 31460
-0.04800000 5.29524994 0.10575000 160 167 177 30917
-0.04800000 5.29500008 0.10675000 160 167 177 27289
-0.04800000 5.29449987 0.10775000 156 161 167 17660
-0.04800000 5.29400015 0.10875000 156 161 167 2157
-0.04725000 5.32550001 0.00675000 127 111 114 1025
-0.04725000 5.32299995 0.00775000 127 111 114 25739
-0.04725000 5.32299995 0.00875000 131 121 132 30957
-0.04725000 5.32250023 0.00975000 131 121 132 30857
-0.04725000 5.32275009 0.01075000 137 133 150 30439
-0.04725000 5.32100010 0.01175000 137 133 150 30650
-0.04725000 5.32000017 0.01275000 142 143 164 29946
-0.04725000 5.32075024 0.01375000 142 143 164 30760
-0.04725000 5.31925011 0.01475000 142 148 172 32314
-0.04725000 5.32149982 0.01575000 142 148 172 33010
-0.04725000 5.31974983 0.01675000 142 148 172 34278
-0.04725000 5.32124996 0.01775000 139 151 175 32421
-0.04725000 5.31899977 0.01875000 139 151 175 31524
-0.04725000 5.31974983 0.01975000 139 160 181 31300
-0.04725000 5.31925011 0.02075000 139 160 181 33767
-0.04725000 5.31825018 0.02175000 133 156 174 32553
-0.04725000 5.31774998 0.02275000 133 156 174 32210
-0.04725000 5.31774998 0.02375000 133 152 167 30267
-0.04725000 5.31825018 0.02475000 133 152 167 30567
-0.04725000 5.31825018 0.02575000 133 152 167 32092
-0.04725000 5.31774998 0.02675000 140 154 167 34035
-0.04725000 5.31874990 0.02775000 140 154 167 34814
-0.04725000 5.31650019 0.02875000 151 160 169 32107
-0.04725000 5.31650019 0.02975000 151 160 169 31214
-0.04725000 5.31599998 0.03075000 155 160 166 30378
-0.04725000 5.31549978 0.03175000 155 160 166 29585
-0.04725000 5.31500006 0.03275000 154 153 159 29014
-0.04725000 5.31599998 0.03375000 154 153 159 27421
-0.04725000 5.31599998 0.03475000 151 144 151 21632
-0.04725000 5.31400013 0.03575000 151 144 151 16000
-0.04725000 5.31400013 0.03675000 151 144 151 10135
-0.04725000 5.31575012 0.03775000 122 109 119 5021
-0.04725000 5.31599998 0.03875000 122 109 119 2692
-0.04725000 5.31624985 0.03975000 96 78 92 1960
-0.04725000 5.31624985 0.04075000 96 78 92 1817
-0.04725000 5.31675005 0.04175000 75 54 73 1710
-0.04725000 5.31675005 0.04275000 75 54 73 1721
-0.04725000 5.31274986 0.04375000 68 44 68 1632
-0.04725000 5.31624985 0.04475000 68 44 68 1632
-0.04725000 5.31575012 0.04675000 65 38 69 1746
-0.04725000 5.31250000 0.04875000 65 38 73 1664
-0.04725000 5.31449986 0.04975000 65 38 73 1717
-0.04700000 5.31024981 0.05175000 68 40 80 1657
-0.04725000 5.31325006 0.05275000 69 41 81 1782
-0.04725000 5.31374979 0.05375000 69 41 81 1807
-0.04725000 5.31274986 0.05475000 63 33 69 1892
-0.04725000 5.31250000 0.05675000 63 33 69 1675
-0.04700000 5.30924988 0.05975000 70 39 71 1671
-0.04700000 5.30749989 0.06075000 70 39 71 1682
-0.04700000 5.30800009 0.06375000 67 36 67 1785
-0.04700000 5.31075001 0.06475000 67 36 67 1671
-0.04700000 5.30950022 0.06575000 67 36 67 1575
-0.04700000 5.30900002 0.06775000 64 33 64 1582
-0.04700000 5.30625010 0.06975000 66 37 65 1889
-0.04700000 5.30849981 0.07175000 70 46 72 2014
-0.04700000 5.30625010 0.07275000 67 45 68 2192
-0.04700000 5.30525017 0.07350000 67 45 68 2414
-0.04700000 5.30649996 0.07475000 61 43 65 2614
-0.04700000 5.30450010 0.07550000 61 43 65 3646
-0.04700000 5.30350018 0.07650000 61 43 65 6432
-0.04700000 5.30299997 0.07750000 64 51 71 10500
-0.04700000 5.30350018 0.07850000 64 51 71 16932
-0.04700000 5.30375004 0.07950000 83 76 92 23989
-0.04700000 5.30249977 0.08050000 83 76 92 27496
-0.04700000 5.30149984 0.08150000 110 108 122 30771
-0.04700000 5.30200005 0.08250000 110 108 122 33021
-0.04700000 5.30249977 0.08350000 133 135 147 33628
-0.04700000 5.30375004 0.08450000 133 135 147 34389
-0.04700000 5.30175018 0.08550000 133 135 147 32085
-0.04700000 5.30000019 0.08650000 151 155 166 31646
-0.04700000 5.29974985 0.08750000 151 155 166 32675
-0.04700000 5.30124998 0.08850000 158 164 178 34275
-0.04700000 5.29974985 0.08950000 158 164 178 33650
-0.04700000 5.29974985 0.09050000 153 158 178 32324
-0.04700000 5.29899979 0.09150000 153 158 178 31428
-0.04700000 5.29874992 0.09250000 154 159 181 32682
-0.04700000 5.29974985 0.09350000 154 159 181 31100
-0.04700000 5.29724979 0.09450000 155 160 180 30185
-0.04700000 5.29675007 0.09550000 155 160 180 29214
-0.04700000 5.29675007 0.09650000 155 160 180 32003
-0.04700000 5.29675007 0.09750000 160 167 185 32346
-0.04700000 5.29624987 0.09850000 160 167 185 32464
-0.04700000 5.29624987 0.09950000 165 172 188 32121
-0.04700000 5.29650021 0.10050000 165 172 188 31335
-0.04700000 5.29675007 0.10150000 157 165 178 30189
-0.04700000 5.29524994 0.10450000 152 158 170 31128
-0.04700000 5.29500008 0.10550000 152 158 170 30607
-0.04700000 5.29500008 0.10650000 158 162 171 26032
-0.04700000 5.29500008 0.10725000 158 162 171 17285
-0.04700000 5.29475021 0.10825000 152 155 162 7728
-0.04625000 5.32399988 0.00100000 115 87 65 6864
-0.04625000 5.32324982 0.00700000 127 111 114 16142
-0.04625000 5.32399988 0.00800000 131 121 132 25803
-0.04625000 5.32250023 0.00900000 131 121 132 30439
-0.04625000 5.32175016 0.01025000 131 121 132 28882
-0.04625000 5.32175016 0.01100000 137 133 150 29546
-0.04625000 5.32149982 0.01200000 137 133 150 31075
-0.04625000 5.32200003 0.01300000 142 143 164 32650
-0.04625000 5.32149982 0.01400000 142 143 164 31182
-0.04625000 5.31925011 0.01500000 142 148 172 30771
-0.04625000 5.32000017 0.01600000 142 148 172 32782
-0.04625000 5.32000017 0.01725000 139 151 175 33510
-0.04625000 5.31874990 0.01800000 139 151 175 32317
-0.04625000 5.32000017 0.01900000 139 151 175 31192
-0.04625000 5.31874990 0.02000000 139 160 181 31635
-0.04625000 5.31974983 0.02125000 139 160 181 31742
-0.04625000 5.31750011 0.02200000 133 156 174 30164
-0.04625000 5.31724977 0.02300000 133 156 174 29764
-0.04625000 5.31799984 0.02400000 133 152 167 28810
-0.04625000 5.31724977 0.02500000 133 152 167 29096
-0.04625000 5.31774998 0.02600000 140 154 167 31535
-0.04625000 5.31874990 0.02700000 140 154 167 33646
-0.04625000 5.31624985 0.02800000 151 160 169 33292
-0.04625000 5.31624985 0.02925000 151 160 169 32928
-0.04625000 5.31724977 0.03025000 151 160 169 30675
-0.04625000 5.31699991 0.03125000 155 160 166 29475
-0.04625000 5.31500006 0.03200000 155 160 166 30282
-0.04625000 5.31500006 0.03300000 154 153 159 27096
-0.04625000 5.31575012 0.03425000 154 153 159 20550
-0.04625000 5.31424999 0.03500000 151 144 151 13075
-0.04625000 5.31549978 0.03600000 151 144 151 7025
-0.04625000 5.31300020 0.03700000 122 109 119 3692
-0.04625000 5.31624985 0.03825000 122 109 119 2382
-0.04625000 5.31724977 0.04025000 96 78 92 1828
-0.04625000 5.31575012 0.04425000 68 44 68 1710
-0.04625000 5.31424999 0.04700000 65 38 69 1789
-0.04625000 5.31325006 0.05100000 68 40 80 1717
-0.04625000 5.31325006 0.05200000 68 40 80 1832
-0.04625000 5.31174994 0.05300000 69 41 81 1814
-0.04625000 5.31225014 0.05400000 69 41 81 1892
-0.04625000 5.31250000 0.05500000 63 33 69 1914
-0.04625000 5.31225014 0.05600000 63 33 69 1946
-0.04625000 5.31274986 0.05700000 65 35 69 1817
-0.04625000 5.31099987 0.05900000 65 35 69 1671
-0.04625000 5.31150007 0.06000000 70 39 71 1585
-0.04625000 5.31075001 0.06100000 70 39 71 1646
-0.04625000 5.31050014 0.06200000 71 40 72 1692
-0.04625000 5.31075001 0.06300000 71 40 72 1910
-0.04625000 5.31024981 0.06400000 67 36 67 1796
-0.04625000 5.31050014 0.06600000 64 33 64 1621
-0.04600000 5.30900002 0.06700000 64 33 64 1760
-0.04600000 5.30749989 0.06800000 66 37 65 1707
-0.04600000 5.30924988 0.07000000 66 37 65 1664
-0.04600000 5.30474997 0.07200000 70 46 72 2075
-0.04600000 5.30474997 0.07300000 67 45 68 2032
-0.04600000 5.30625010 0.07500000 61 43 65 1917
-0.04600000 5.30725002 0.07600000 61 43 65 2510
-0.04600000 5.30474997 0.07700000 64 51 71 4328
-0.04600000 5.30175018 0.07800000 64 51 71 6817
-0.04600000 5.30249977 0.07900000 64 51 71 11871
-0.04600000 5.30350018 0.08000000 83 76 92 19082
-0.04600000 5.30224991 0.08100000 83 76 92 24717
-0.04600000 5.30074978 0.08200000 110 108 122 27757
-0.04600000 5.30025005 0.08300000 110 108 122 29967
-0.04600000 5.30124998 0.08400000 133 135 147 32089
-0.04600000 5.30249977 0.08500000 133 135 147 35478
-0.04600000 5.30149984 0.08600000 151 155 166 34271
-0.04600000 5.30074978 0.08700000 151 155 166 33267
-0.04600000 5.30000019 0.08800000 158 164 178 34025
-0.04600000 5.30000019 0.08900000 158 164 178 33400
-0.04600000 5.29974985 0.09000000 158 164 178 32100
-0.04600000 5.30025005 0.09100000 153 158 178 33032
-0.04600000 5.29850006 0.09175000 153 158 178 31878
-0.04600000 5.29850006 0.09275000 154 159 181 33782
-0.04600000 5.29850006 0.09375000 154 159 181 32682
-0.04600000 5.29799986 0.09475000 155 160 180 30589
-0.04600000 5.29775000 0.09575000 155 160 180 31439
-0.04600000 5.29724979 0.09775000 160 167 185 34432
-0.04600000 5.29650021 0.09875000 160 167 185 35242
-0.04600000 5.29650021 0.09975000 165 172 188 33296
-0.04600000 5.29650021 0.10075000 165 172 188 32346
-0.04600000 5.29724979 0.10175000 157 165 178 31014
-0.04600000 5.29624987 0.10275000 157 165 178 30600
-0.04600000 5.29549980 0.10375000 152 158 170 31342
-0.04600000 5.29575014 0.10475000 152 158 170 32467
-0.04600000 5.29475021 0.10575000 158 162 171 28578
-0.04600000 5.29449987 0.10675000 158 162 171 19650
-0.04600000 5.29699993 0.10775000 152 155 162 2671
-0.04525000 5.32324982 0.00875000 123 113 122 24953
-0.04525000 5.32224989 0.00975000 123 113 122 30135
-0.04525000 5.32224989 0.01075000 127 123 138 31503
-0.04525000 5.32149982 0.01175000 127 123 138 30964
-0.04525000 5.32124996 0.01275000 137 138 159 31732
-0.04525000 5.32075024 0.01375000 137 138 159 30971
-0.04525000 5.32000017 0.01475000 143 147 172 31300
-0.04525000 5.32175016 0.01575000 143 147 172 31400
-0.04525000 5.31949997 0.01675000 143 147 172 30767
-0.04525000 5.31949997 0.01775000 140 150 177 31085
-0.04525000 5.31899977 0.01875000 140 150 177 29857
-0.04525000 5.31799984 0.01975000 143 160 186 29664
-0.04525000 5.31799984 0.02075000 143 160 186 30567
-0.04525000 5.31799984 0.02175000 131 151 176 30885
-0.04525000 5.31850004 0.02275000 131 151 176 30882
-0.04525000 5.31825018 0.02375000 129 145 170 30667
-0.04525000 5.31675005 0.02475000 129 145 170 30167
-0.04525000 5.31675005 0.02575000 129 145 170 29871
-0.04525000 5.31675005 0.02675000 139 151 173 30371
-0.04525000 5.31724977 0.02775000 139 151 173 31317
-0.04525000 5.31599998 0.02875000 154 161 180 29678
-0.04525000 5.31675005 0.02975000 154 161 180 29578
-0.04525000 5.31575012 0.03075000 156 159 176 29582
-0.04525000 5.31675005 0.03175000 156 159 176 28635
-0.04525000 5.31675005 0.03275000 140 137 154 22839
-0.04525000 5.31524992 0.03375000 140 137 154 16371
-0.04525000 5.31524992 0.03475000 124 117 133 9321
-0.04525000 5.31599998 0.03575000 124 117 133 4500
-0.04525000 5.31599998 0.03675000 124 117 133 2553
-0.04525000 5.31724977 0.03975000 67 52 71 1950
-0.04525000 5.31650019 0.04075000 67 52 71 1935
-0.04525000 5.31325006 0.04275000 60 43 62 1535
-0.04525000 5.31374979 0.04375000 61 42 64 1603
-0.04525000 5.31400013 0.04475000 61 42 64 1807
-0.04525000 5.31549978 0.04775000 61 38 66 1853
-0.04500000 5.31099987 0.04875000 61 38 67 1710
-0.04525000 5.31449986 0.04975000 61 38 67 1757
-0.04500000 5.31199980 0.05275000 66 41 73 1885
-0.04525000 5.31349993 0.05375000 66 41 73 1789
-0.04525000 5.31349993 0.05475000 60 33 66 1703
-0.04500000 5.31099987 0.05775000 66 37 68 1592
-0.04500000 5.30800009 0.05975000 72 41 73 1528
-0.04500000 5.30900002 0.06175000 72 41 73 1657
-0.04500000 5.30775023 0.06275000 72 41 73 1660
-0.04500000 5.31075001 0.06575000 65 34 65 1903
-0.04500000 5.30950022 0.06675000 61 30 61 1857
-0.04500000 5.31024981 0.06775000 61 30 61 1785
-0.04500000 5.30999994 0.06875000 65 36 66 1742
-0.04500000 5.30450010 0.07050000 71 45 74 1725
-0.04500000 5.30725002 0.07175000 71 45 74 1753
-0.04500000 5.30849981 0.07475000 58 38 63 1732
-0.04500000 5.30600023 0.07550000 58 38 63 1989
-0.04500000 5.30324984 0.07650000 58 38 63 2507
-0.04500000 5.30350018 0.07750000 56 41 64 3414
-0.04500000 5.30249977 0.07850000 56 41 64 5617
-0.04500000 5.30175018 0.07950000 63 54 73 10300
-0.04500000 5.30299997 0.08050000 63 54 73 17907
-0.04500000 5.30249977 0.08150000 79 75 92 24585
-0.04500000 5.30224991 0.08250000 79 75 92 28360
-0.04500000 5.30049992 0.08350000 105 102 119 30678
-0.04500000 5.30149984 0.08450000 105 102 119 33510
-0.04500000 5.30074978 0.08550000 105 102 119 33767
-0.04500000 5.30100012 0.08650000 135 134 150 32907
-0.04500000 5.29949999 0.08750000 135 134 150 32678
-0.04500000 5.29925013 0.08850000 156 157 175 33778
-0.04500000 5.29925013 0.08950000 156 157 175 34682
-0.04500000 5.30025005 0.09050000 155 157 178 34282
-0.04500000 5.29874992 0.09150000 155 157 178 32332
-0.04500000 5.29825020 0.09350000 153 155 178 32571
-0.04500000 5.29949999 0.09450000 154 156 177 34157
-0.04500000 5.29775000 0.09550000 154 156 177 33914
-0.04500000 5.29724979 0.09650000 154 156 177 32810
-0.04500000 5.29750013 0.09750000 161 166 185 31771
-0.04500000 5.29650021 0.09850000 161 166 185 30700
-0.04500000 5.29750013 0.09950000 167 173 189 30385
-0.04500000 5.29624987 0.10050000 167 173 189 31560
-0.04500000 5.29675007 0.10150000 156 162 176 33296
-0.04500000 5.29675007 0.10250000 156 162 176 32578
-0.04500000 5.29624987 0.10350000 151 155 167 31232
-0.04500000 5.29600000 0.10450000 151 155 167 33178
-0.04500000 5.29549980 0.10550000 151 155 167 30300
-0.04500000 5.29675007 0.10650000 158 162 171 21060
-0.04500000 5.29600000 0.10750000 158 162 171 10382
-0.04425000 5.32525015 0.00700000 121 105 108 8382
-0.04425000 5.32299995 0.00800000 123 113 122 16807
-0.04425000 5.32299995 0.00900000 123 113 122 25374
-0.04425000 5.32200003 0.01000000 123 113 122 29735
-0.04425000 5.32149982 0.01100000 127 123 138 29939
-0.04425000 5.32100010 0.01200000 127 123 138 30967
-0.04425000 5.32049990 0.01300000 137 138 159 33017
-0.04425000 5.32149982 0.01400000 137 138 159 34400
-0.04425000 5.32049990 0.01500000 143 147 172 33260
-0.04425000 5.32025003 0.01600000 143 147 172 31624
-0.04425000 5.32100010 0.01700000 140 150 177 31960
-0.04425000 5.31974983 0.01825000 140 150 177 30875
-0.04425000 5.31825018 0.01925000 140 150 177 30567
-0.04425000 5.31799984 0.02000000 143 160 186 32442
-0.04425000 5.31850004 0.02100000 143 160 186 32439
-0.04425000 5.31925011 0.02200000 131 151 176 31196
-0.04425000 5.31850004 0.02300000 131 151 176 29757
-0.04425000 5.31624985 0.02400000 129 145 170 29771
-0.04425000 5.31774998 0.02500000 129 145 170 30571
-0.04425000 5.31750011 0.02600000 139 151 173 31207
-0.04425000 5.31799984 0.02700000 139 151 173 29467
-0.04425000 5.31624985 0.02800000 154 161 180 28914
-0.04425000 5.31675005 0.02925000 154 161 180 29003
-0.04425000 5.31650019 0.03025000 154 161 180 29382
-0.04425000 5.31699991 0.03125000 156 159 176 27085
-0.04425000 5.31724977 0.03225000 156 159 176 20639
-0.04425000 5.31724977 0.03325000 140 137 154 15575
-0.04425000 5.31724977 0.03425000 140 137 154 8489
-0.04425000 5.31699991 0.03525000 124 117 133 4260
-0.04425000 5.31650019 0.03825000 84 71 88 1925
-0.04425000 5.31599998 0.04025000 67 52 71 1853
-0.04425000 5.31524992 0.04125000 67 52 71 1867
-0.04425000 5.31624985 0.04225000 60 43 62 1717
-0.04425000 5.31624985 0.04325000 60 43 62 1657
-0.04425000 5.31575012 0.04425000 61 42 64 1807
-0.04425000 5.31300020 0.04600000 61 38 66 1817
-0.04425000 5.31199980 0.04700000 61 38 66 1789
-0.04425000 5.31549978 0.04825000 61 38 67 1864
-0.04425000 5.31325006 0.04900000 61 38 67 1717
-0.04425000 5.31199980 0.05000000 61 38 67 1878
-0.04425000 5.31174994 0.05100000 64 40 72 1903
-0.04425000 5.31125021 0.05200000 64 40 72 1796
-0.04425000 5.31300020 0.05300000 66 41 73 1664
-0.04425000 5.30950022 0.05400000 66 41 73 1646
-0.04425000 5.31300020 0.05500000 60 33 66 1700
-0.04425000 5.30975008 0.05700000 66 37 68 1671
-0.04425000 5.31199980 0.05900000 72 41 73 1532
-0.04425000 5.30849981 0.06000000 72 41 73 1585
-0.04425000 5.30924988 0.06100000 72 41 73 1453
-0.04425000 5.30600023 0.06200000 72 41 73 1467
-0.04425000 5.31024981 0.06300000 72 41 73 1646
-0.04425000 5.30875015 0.06400000 65 34 65 1864
-0.04425000 5.31075001 0.06500000 65 34 65 1914
-0.04425000 5.30999994 0.06600000 61 30 61 1803
-0.04425000 5.30824995 0.06900000 65 36 66 1778
-0.04400000 5.30275011 0.07400000 63 39 65 1878
-0.04425000 5.30700016 0.07500000 58 38 63 1946
-0.04425000 5.30674982 0.07600000 58 38 63 1935
-0.04425000 5.30625010 0.07700000 56 41 64 2057
-0.04400000 5.30224991 0.07800000 56 41 64 2975
-0.04400000 5.30424976 0.07900000 56 41 64 5253
-0.04400000 5.30474997 0.08000000 63 54 73 9196
-0.04400000 5.30499983 0.08100000 63 54 73 14535
-0.04400000 5.30399990 0.08200000 79 75 92 20742
-0.04400000 5.30124998 0.08300000 79 75 92 24789
-0.04400000 5.30074978 0.08400000 105 102 119 28817
-0.04400000 5.30124998 0.08500000 105 102 119 31639
-0.04400000 5.30275011 0.08600000 135 134 150 31300
-0.04400000 5.30149984 0.08700000 135 134 150 31196
-0.04400000 5.30025005 0.08800000 156 157 175 34021
-0.04400000 5.30049992 0.08900000 156 157 175 34939
-0.04400000 5.29974985 0.09000000 156 157 175 34157
-0.04400000 5.29925013 0.09100000 155 157 178 32800
-0.04400000 5.29799986 0.09175000 155 157 178 31660
-0.04400000 5.29850006 0.09275000 153 155 178 30900
-0.04400000 5.29775000 0.09375000 153 155 178 32339
-0.04400000 5.29799986 0.09475000 154 156 177 33660
-0.04400000 5.29899979 0.09575000 154 156 177 32564
-0.04400000 5.29799986 0.09675000 161 166 185 31221
-0.04400000 5.29699993 0.09775000 161 166 185 30289
-0.04400000 5.29825020 0.09875000 161 166 185 31546
-0.04400000 5.29650021 0.09975000 167 173 189 33296
-0.04400000 5.29724979 0.10075000 167 173 189 35100
-0.04400000 5.29724979 0.10175000 156 162 176 33417
-0.04400000 5.29699993 0.10275000 156 162 176 32228
-0.04400000 5.29600000 0.10375000 151 155 167 31450
-0.04400000 5.29699993 0.10475000 151 155 167 30596
-0.04400000 5.29549980 0.10575000 158 162 171 21114
-0.04400000 5.29524994 0.10675000 158 162 171 10871
-0.04400000 5.29699993 0.10775000 145 148 153 3085
-0.04325000 5.32224989 0.00875000 120 109 117 18203
-0.04325000 5.32224989 0.00975000 120 109 117 26117
-0.04325000 5.32175016 0.01075000 128 122 136 30546
-0.04325000 5.32175016 0.01175000 128 122 136 30864
-0.04325000 5.32275009 0.01275000 134 133 151 30439
-0.04325000 5.32100010 0.01375000 134 133 151 31514
-0.04325000 5.32100010 0.01475000 140 142 165 31735
-0.04325000 5.31974983 0.01575000 140 142 165 31742
-0.04325000 5.32049990 0.01675000 140 142 165 32192
-0.04325000 5.32025003 0.01775000 141 148 174 32307
-0.04325000 5.31774998 0.01875000 141 148 174 30989
-0.04325000 5.31899977 0.01975000 141 155 184 29753
-0.04325000 5.31774998 0.02075000 141 155 184 30064
-0.04325000 5.31750011 0.02175000 133 148 179 30267
-0.04325000 5.31774998 0.02275000 133 148 179 30889
-0.04325000 5.31925011 0.02375000 131 145 174 30982
-0.04325000 5.31874990 0.02475000 131 145 174 30775
-0.04325000 5.31774998 0.02575000 131 145 174 31642
-0.04325000 5.31799984 0.02675000 142 151 180 31982
-0.04325000 5.31750011 0.02775000 142 151 180 31757
-0.04325000 5.31699991 0.02875000 150 156 182 30371
-0.04325000 5.31624985 0.02975000 150 156 182 27928
-0.04325000 5.31675005 0.03075000 141 141 167 22892
-0.04325000 5.31675005 0.03175000 141 141 167 17146
-0.04325000 5.31575012 0.03275000 112 108 133 11946
-0.04325000 5.31449986 0.03375000 112 108 133 5967
-0.04325000 5.31524992 0.03475000 88 80 104 3092
-0.04325000 5.31850004 0.03575000 88 80 104 2282
-0.04325000 5.31524992 0.03675000 88 80 104 1985
-0.04325000 5.31675005 0.03775000 68 56 80 1835
-0.04325000 5.31524992 0.03875000 68 56 80 1625
-0.04325000 5.31500006 0.03975000 60 46 69 1753
-0.04300000 5.31199980 0.04075000 60 46 69 1796
-0.04325000 5.31699991 0.04175000 59 44 67 1782
-0.04325000 5.31599998 0.04375000 62 44 68 1853
-0.04325000 5.31675005 0.04475000 62 44 68 1846
-0.04325000 5.31374979 0.04575000 62 44 68 1835
-0.04300000 5.31225014 0.04675000 58 40 64 1842
-0.04325000 5.31599998 0.04775000 58 40 64 1842
-0.04325000 5.31524992 0.04975000 57 39 63 1700
-0.04325000 5.31400013 0.05175000 60 42 66 1682
-0.04325000 5.31449986 0.05275000 63 40 68 1482
-0.04300000 5.31250000 0.05875000 65 36 67 1464
-0.04300000 5.30950022 0.05975000 69 38 70 1478
-0.04300000 5.31174994 0.06175000 69 38 70 1507
-0.04300000 5.31024981 0.06275000 69 38 70 1521
-0.04300000 5.30849981 0.06375000 65 34 65 1671
-0.04300000 5.30975008 0.06575000 65 34 65 1657
-0.04300000 5.30574989 0.06650000 61 30 61 1628
-0.04300000 5.30725002 0.06975000 63 34 64 1928
-0.04300000 5.30574989 0.07150000 67 41 70 1928
-0.04300000 5.30350018 0.07350000 63 38 67 2050
-0.04300000 5.30450010 0.07450000 63 40 66 1953
-0.04300000 5.30375004 0.07550000 63 40 66 1900
-0.04300000 5.30775023 0.07675000 63 40 66 1839
-0.04300000 5.30350018 0.07750000 61 43 67 2046
-0.04300000 5.30674982 0.07875000 61 43 67 2589
-0.04300000 5.30550003 0.07950000 59 45 68 3957
-0.04300000 5.30399990 0.08050000 59 45 68 6682
-0.04300000 5.30299997 0.08150000 62 53 74 10260
-0.04300000 5.30149984 0.08250000 62 53 74 16878
-0.04300000 5.30175018 0.08350000 81 73 94 23082
-0.04300000 5.30100012 0.08450000 81 73 94 27335
-0.04300000 5.30175018 0.08550000 81 73 94 30667
-0.04300000 5.30049992 0.08650000 112 107 127 31314
-0.04300000 5.30049992 0.08750000 112 107 127 33396
-0.04300000 5.29949999 0.08850000 138 135 156 33775
-0.04300000 5.30000019 0.08950000 138 135 156 32560
-0.04300000 5.29925013 0.09050000 157 158 179 31874
-0.04300000 5.29925013 0.09150000 157 158 179 32328
-0.04300000 5.29974985 0.09250000 160 162 185 33035
-0.04300000 5.29850006 0.09350000 160 162 185 34292
-0.04300000 5.30025005 0.09450000 157 159 180 34678
-0.04300000 5.29799986 0.09550000 157 159 180 33414
-0.04300000 5.29775000 0.09650000 157 159 180 31996
-0.04300000 5.29775000 0.09750000 155 158 177 33167
-0.04300000 5.29724979 0.09850000 155 158 177 32575
-0.04300000 5.29724979 0.09950000 159 162 179 32810
-0.04300000 5.29675007 0.10050000 159 162 179 33667
-0.04300000 5.29750013 0.10150000 158 162 174 33414
-0.04300000 5.29724979 0.10250000 158 162 174 33539
-0.04300000 5.29699993 0.10350000 155 159 170 31771
-0.04300000 5.29524994 0.10450000 155 159 170 29128
-0.04300000 5.29500008 0.10525000 155 159 170 21164
-0.04300000 5.29624987 0.10650000 158 161 170 10935
-0.04300000 5.29899979 0.10750000 158 161 170 3067
-0.04225000 5.32224989 0.00900000 120 109 117 15560
-0.04225000 5.32100010 0.01000000 120 109 117 24096
-0.04225000 5.32224989 0.01100000 128 122 136 29250
-0.04225000 5.32175016 0.01200000 128 122 136 29253
-0.04225000 5.32149982 0.01300000 134 133 151 30139
-0.04225000 5.31974983 0.01425000 134 133 151 31192
-0.04225000 5.32124996 0.01525000 140 142 165 30967
-0.04225000 5.31974983 0.01600000 140 142 165 31857
-0.04225000 5.32025003 0.01700000 141 148 174 32782
-0.04225000 5.32000017 0.01825000 141 148 174 32310
-0.04225000 5.32000017 0.01925000 141 155 184 31742
-0.04225000 5.32049990 0.02025000 141 155 184 31296
-0.04225000 5.31925011 0.02100000 141 155 184 30664
-0.04225000 5.31799984 0.02200000 133 148 179 30671
-0.04225000 5.31949997 0.02300000 133 148 179 30153
-0.04225000 5.32000017 0.02400000 131 145 174 30975
-0.04225000 5.31850004 0.02500000 131 145 174 30464
-0.04225000 5.31799984 0.02625000 142 151 180 30264
-0.04225000 5.31799984 0.02725000 142 151 180 30989
-0.04225000 5.31750011 0.02800000 150 156 182 30064
-0.04225000 5.31624985 0.02900000 150 156 182 25482
-0.04225000 5.31549978 0.03000000 150 156 182 18953
-0.04225000 5.31500006 0.03100000 141 141 167 13250
-0.04225000 5.31624985 0.03225000 141 141 167 8096
-0.04225000 5.31624985 0.03300000 112 108 133 4303
-0.04225000 5.31624985 0.03425000 112 108 133 2667
-0.04225000 5.31349993 0.03500000 88 80 104 2082
-0.04225000 5.31774998 0.03625000 88 80 104 1835
-0.04225000 5.31449986 0.03725000 68 56 80 1799
-0.04225000 5.31650019 0.03825000 68 56 80 1667
-0.04225000 5.31325006 0.03900000 68 56 80 1742
-0.04225000 5.31549978 0.04025000 60 46 69 1867
-0.04225000 5.31724977 0.04225000 59 44 67 1782
-0.04225000 5.31274986 0.04300000 59 44 67 1835
-0.04225000 5.31424999 0.04600000 58 40 64 1942
-0.04225000 5.31549978 0.04825000 57 39 63 1810
-0.04200000 5.31075001 0.05100000 60 42 66 1592
-0.04225000 5.31325006 0.05500000 62 36 65 1621
-0.04225000 5.31150007 0.05600000 62 36 65 1503
-0.04200000 5.31024981 0.05800000 65 36 67 1400
-0.04200000 5.30849981 0.06000000 69 38 70 1557
-0.04225000 5.31099987 0.06200000 69 38 70 1646
-0.04200000 5.30924988 0.06300000 69 38 70 1621
-0.04225000 5.31125021 0.06400000 65 34 65 1664
-0.04225000 5.31075001 0.06700000 61 30 61 1646
-0.04200000 5.30900002 0.06900000 63 34 64 1917
-0.04200000 5.30649996 0.07000000 63 34 64 1867
-0.04200000 5.30725002 0.07300000 63 38 67 2089
-0.04200000 5.30625010 0.07400000 63 38 67 1971
-0.04200000 5.30574989 0.07500000 63 40 66 1832
-0.04200000 5.30600023 0.07700000 61 43 67 1892
-0.04200000 5.30299997 0.07900000 61 43 67 2285
-0.04200000 5.30224991 0.08000000 59 45 68 2928
-0.04200000 5.30124998 0.08100000 59 45 68 4453
-0.04200000 5.30200005 0.08200000 62 53 74 7935
-0.04200000 5.30175018 0.08300000 62 53 74 13360
-0.04200000 5.30200005 0.08400000 81 73 94 19496
-0.04200000 5.30200005 0.08500000 81 73 94 24653
-0.04200000 5.30025005 0.08600000 112 107 127 29099
-0.04200000 5.30074978 0.08700000 112 107 127 32321
-0.04200000 5.30000019 0.08800000 138 135 156 32792
-0.04200000 5.30025005 0.08900000 138 135 156 30782
-0.04200000 5.29899979 0.08975000 138 135 156 30278
-0.04200000 5.29949999 0.09100000 157 158 179 29199
-0.04200000 5.29925013 0.09200000 157 158 179 30071
-0.04200000 5.29925013 0.09300000 160 162 185 31214
-0.04200000 5.29799986 0.09375000 160 162 185 32685
-0.04200000 5.29825020 0.09475000 157 159 180 32450
-0.04200000 5.29799986 0.09575000 157 159 180 32110
-0.04200000 5.29699993 0.09675000 155 158 177 32000
-0.04200000 5.29699993 0.09775000 155 158 177 32342
-0.04200000 5.29799986 0.09875000 159 162 179 31882
-0.04200000 5.29724979 0.09975000 159 162 179 32932
-0.04200000 5.29699993 0.10075000 159 162 179 33792
-0.04200000 5.29600000 0.10175000 158 162 174 32350
-0.04200000 5.29675007 0.10275000 158 162 174 31335
-0.04200000 5.29724979 0.10375000 155 159 170 28125
-0.04200000 5.29575014 0.10475000 155 159 170 20307
-0.04200000 5.29575014 0.10575000 158 161 170 10575
-0.04200000 5.29449987 0.10675000 158 161 170 3567
-0.04125000 5.32075024 0.01075000 128 122 136 22932
-0.04125000 5.32224989 0.01175000 128 122 136 28421
-0.04125000 5.32100010 0.01275000 134 133 151 30550
-0.04125000 5.32049990 0.01375000 134 133 151 31410
-0.04125000 5.32025003 0.01475000 140 142 165 31410
-0.04125000 5.32025003 0.01575000 140 142 165 30871
-0.04125000 5.32000017 0.01675000 140 142 165 31300
-0.04125000 5.31850004 0.01775000 141 148 174 31978
-0.04125000 5.31974983 0.01875000 141 148 174 33025
-0.04125000 5.32049990 0.01975000 141 155 184 34800
-0.04125000 5.31850004 0.02075000 141 155 184 33396
-0.04125000 5.31899977 0.02175000 133 148 179 31974
-0.04125000 5.31899977 0.02275000 133 148 179 34153
-0.04125000 5.31899977 0.02375000 131 145 174 33392
-0.04125000 5.31874990 0.02475000 131 145 174 33028
-0.04125000 5.31799984 0.02575000 131 145 174 31639
-0.04125000 5.31774998 0.02675000 142 151 180 29092
-0.04125000 5.31724977 0.02775000 142 151 180 27925
-0.04125000 5.31624985 0.02875000 150 156 182 22439
-0.04125000 5.31500006 0.02975000 150 156 182 15242
-0.04125000 5.31774998 0.03075000 141 141 167 9871
-0.04125000 5.31774998 0.03175000 141 141 167 5121
-0.04125000 5.31724977 0.03275000 112 108 133 2935
-0.04125000 5.31750011 0.03375000 112 108 133 2103
-0.04125000 5.31899977 0.03475000 88 80 104 2032
-0.04125000 5.31724977 0.03575000 88 80 104 1907
-0.04125000 5.31624985 0.03675000 88 80 104 1853
-0.04125000 5.31750011 0.03775000 68 56 80 1792
-0.04125000 5.31724977 0.03975000 60 46 69 1846
-0.04125000 5.31724977 0.04075000 60 46 69 1792
-0.04125000 5.31774998 0.04175000 59 44 67 1828
-0.04125000 5.31475019 0.04275000 59 44 67 1878
-0.04125000 5.31575012 0.04375000 62 44 68 1810
-0.04125000 5.31374979 0.04475000 62 44 68 1646
-0.04125000 5.31575012 0.04575000 62 44 68 1685
-0.04125000 5.31575012 0.04675000 58 40 64 1885
-0.04125000 5.31524992 0.04875000 57 39 63 1925
-0.04100000 5.30999994 0.05075000 60 42 66 1735
-0.04125000 5.31250000 0.05175000 60 42 66 1628
-0.04100000 5.30924988 0.05775000 65 36 67 1414
-0.04100000 5.30800009 0.05875000 65 36 67 1514
-0.04100000 5.30775023 0.06075000 69 38 70 1671
-0.04100000 5.31125021 0.06375000 65 34 65 1692
-0.04100000 5.30950022 0.06675000 61 30 61 1875
-0.04100000 5.30900002 0.06775000 61 30 61 1910
-0.04100000 5.30649996 0.06875000 63 34 64 1875
-0.04100000 5.30924988 0.06975000 63 34 64 1778
-0.04100000 5.30600023 0.07075000 67 41 70 1828
-0.04100000 5.30625010 0.07175000 67 41 70 1917
-0.04100000 5.30749989 0.07375000 63 38 67 1910
-0.04100000 5.30450010 0.07450000 63 40 66 1971
-0.04100000 5.30625010 0.07650000 63 40 66 1953
-0.04100000 5.30725002 0.07875000 61 43 67 2121
-0.04100000 5.30249977 0.07950000 59 45 68 2292
-0.04100000 5.30474997 0.08050000 59 45 68 2753
-0.04100000 5.30474997 0.08150000 62 53 74 3914
-0.04100000 5.30399990 0.08250000 62 53 74 6450
-0.04100000 5.30249977 0.08350000 81 73 94 10975
-0.04100000 5.30100012 0.08450000 81 73 94 17878
-0.04100000 5.30124998 0.08550000 81 73 94 24453
-0.04100000 5.30224991 0.08650000 112 107 127 29957
-0.04100000 5.30175018 0.08750000 112 107 127 33264
-0.04100000 5.30124998 0.08850000 138 135 156 33025
-0.04100000 5.30049992 0.08950000 138 135 156 32557
-0.04100000 5.30100012 0.09050000 157 158 179 31200
-0.04100000 5.30000019 0.09150000 157 158 179 32096
-0.04100000 5.29850006 0.09250000 160 162 185 31992
-0.04100000 5.29874992 0.09350000 160 162 185 31760
-0.04100000 5.29850006 0.09550000 157 159 180 31764
-0.04100000 5.29899979 0.09650000 157 159 180 32800
-0.04100000 5.29899979 0.09750000 155 158 177 34028
-0.04100000 5.29799986 0.09850000 155 158 177 28475
-0.04100000 5.29675007 0.09950000 159 162 179 31774
-0.04100000 5.29750013 0.10050000 159 162 179 32807
-0.04100000 5.29724979 0.10150000 158 162 174 32457
-0.04100000 5.29650021 0.10250000 158 162 174 30803
-0.04100000 5.29724979 0.10350000 155 159 170 26867
-0.04100000 5.29575014 0.10450000 155 159 170 18371
-0.04100000 5.29500008 0.10550000 155 159 170 9496
-0.04025000 5.32375002 0.01025000 118 105 112 15160
-0.04025000 5.32299995 0.01100000 131 123 134 23896
-0.04025000 5.32250023 0.01200000 131 123 134 30539
-0.04025000 5.32149982 0.01300000 132 128 143 31732
-0.04025000 5.32124996 0.01400000 132 128 143 30550
-0.04025000 5.32000017 0.01500000 140 137 156 32310
-0.04025000 5.31949997 0.01600000 140 137 156 32200
-0.04025000 5.32049990 0.01700000 145 147 170 32078
-0.04025000 5.31974983 0.01800000 145 147 170 33389
-0.04025000 5.31974983 0.01925000 145 147 170 33764
-0.04025000 5.32000017 0.02025000 141 148 177 33139
-0.04025000 5.31774998 0.02125000 141 148 177 32442
-0.04025000 5.31850004 0.02200000 139 150 182 34157
-0.04025000 5.31850004 0.02300000 139 150 182 35228
-0.04025000 5.31850004 0.02400000 142 151 184 35089
-0.04025000 5.31899977 0.02500000 142 151 184 33646
-0.04025000 5.31850004 0.02600000 146 151 183 31978
-0.04025000 5.31825018 0.02725000 146 151 183 29089
-0.04025000 5.31699991 0.02825000 140 140 174 21578
-0.04025000 5.31650019 0.02925000 140 140 174 14185
-0.04025000 5.31750011 0.03025000 140 140 174 8007
-0.04025000 5.31724977 0.03125000 117 113 148 4128
-0.04025000 5.31799984 0.03225000 117 113 148 2707
-0.04025000 5.31475019 0.03300000 83 76 110 2332
-0.04025000 5.31899977 0.03425000 83 76 110 1996
-0.04025000 5.31750011 0.03725000 63 49 82 1792
-0.04025000 5.31400013 0.03800000 63 49 82 1753
-0.04025000 5.31750011 0.03925000 59 44 75 1585
-0.04025000 5.31750011 0.04025000 59 44 75 1603
-0.04025000 5.31424999 0.04125000 59 44 75 1603
-0.04025000 5.31549978 0.04225000 61 45 72 1603
-0.04025000 5.31650019 0.04425000 62 46 72 1603
-0.04025000 5.31500006 0.04525000 62 46 72 1817
-0.04025000 5.31349993 0.04700000 56 41 62 2046
-0.04025000 5.31575012 0.04825000 57 40 59 2160
-0.04025000 5.31300020 0.04900000 57 40 59 2021
-0.04025000 5.31199980 0.05300000 61 42 62 1832
-0.04025000 5.31250000 0.05400000 61 42 62 1746
-0.04025000 5.31325006 0.05500000 64 38 65 1639
-0.04025000 5.30900002 0.05600000 64 38 65 1592
-0.04025000 5.30800009 0.05900000 63 34 64 1642
-0.04025000 5.31024981 0.06000000 62 33 63 1575
-0.04025000 5.30900002 0.06100000 62 33 63 1528
-0.04025000 5.30999994 0.06300000 64 35 65 1610
-0.04025000 5.31125021 0.06400000 66 35 66 1621
-0.04025000 5.30975008 0.06500000 66 35 66 1814
-0.04025000 5.31125021 0.06600000 64 33 64 1892
-0.04025000 5.30950022 0.06700000 64 33 64 1957
-0.04000000 5.30625010 0.06800000 62 33 63 1832
-0.04025000 5.30700016 0.07000000 62 33 63 2050
-0.04025000 5.30924988 0.07200000 63 34 64 1971
-0.04000000 5.30375004 0.07400000 63 37 66 1803
-0.04025000 5.30775023 0.07600000 66 41 71 1785
-0.04000000 5.30474997 0.07700000 69 46 75 1796
-0.04000000 5.30450010 0.07800000 69 46 75 2057
-0.04000000 5.30399990 0.07900000 69 46 75 2253
-0.04000000 5.30200005 0.08000000 64 45 73 2385
-0.04000000 5.30224991 0.08100000 64 45 73 2375
-0.04000000 5.30350018 0.08200000 59 43 70 3000
-0.04000000 5.30350018 0.08300000 59 43 70 4967
-0.04000000 5.30324984 0.08400000 64 51 77 8221
-0.04000000 5.30100012 0.08500000 64 51 77 13664
-0.04000000 5.30149984 0.08600000 87 74 100 20703
-0.04000000 5.29949999 0.08700000 87 74 100 26310
-0.04000000 5.30100012 0.08800000 106 98 122 29285
-0.04000000 5.30000019 0.08900000 106 98 122 30889
-0.04000000 5.30049992 0.09000000 106 98 122 30778
-0.04000000 5.30049992 0.09100000 143 139 164 31642
-0.04000000 5.29974985 0.09200000 143 139 164 31539
-0.04000000 5.29925013 0.09300000 162 160 184 30378
-0.04000000 5.29949999 0.09400000 162 160 184 30682
-0.04000000 5.29850006 0.09475000 166 164 186 31432
-0.04000000 5.29850006 0.09575000 166 164 186 32450
-0.04000000 5.29799986 0.09675000 153 154 174 33167
-0.04000000 5.29899979 0.09800000 153 154 174 34032
-0.04000000 5.29899979 0.09900000 153 154 174 32800
-0.04000000 5.29775000 0.09975000 154 155 173 32928
-0.04000000 5.29650021 0.10075000 154 155 173 32346
-0.04000000 5.29650021 0.10175000 162 164 177 31560
-0.04000000 5.29650021 0.10275000 162 164 177 26253
-0.04000000 5.29549980 0.10375000 157 160 169 17585
-0.04000000 5.29575014 0.10475000 157 160 169 2846
-0.03925000 5.32425022 0.01175000 131 123 134 2471
-0.03925000 5.32175016 0.01275000 132 128 143 29071
-0.03925000 5.32124996 0.01375000 132 128 143 29742
-0.03925000 5.32124996 0.01475000 140 137 156 30967
-0.03925000 5.31974983 0.01575000 140 137 156 33267
-0.03925000 5.32049990 0.01675000 140 137 156 31853
-0.03925000 5.31925011 0.01775000 145 147 170 30878
-0.03925000 5.31799984 0.01875000 145 147 170 31982
-0.03925000 5.31925011 0.01975000 141 148 177 33892
-0.03925000 5.32075024 0.02075000 141 148 177 32539
-0.03925000 5.31874990 0.02175000 139 150 182 30985
-0.03925000 5.31750011 0.02275000 139 150 182 31207
-0.03925000 5.31750011 0.02375000 142 151 184 31314
-0.03925000 5.31850004 0.02475000 142 151 184 30882
-0.03925000 5.31774998 0.02575000 142 151 184 30571
-0.03925000 5.31799984 0.02675000 146 151 183 26682
-0.03925000 5.31825018 0.02775000 146 151 183 19060
-0.03925000 5.31724977 0.02875000 140 140 174 11517
-0.03925000 5.31624985 0.02975000 140 140 174 5707
-0.03925000 5.31799984 0.03075000 117 113 148 3253
-0.03925000 5.31699991 0.03175000 117 113 148 2342
-0.03925000 5.31750011 0.03275000 83 76 110 2139
-0.03925000 5.31699991 0.03375000 83 76 110 2128
-0.03925000 5.31774998 0.03475000 58 48 82 1907
-0.03925000 5.31724977 0.03575000 58 48 82 1846
-0.03925000 5.31549978 0.03875000 63 49 82 1675
-0.03925000 5.31650019 0.04375000 62 46 72 1621
-0.03925000 5.31424999 0.04475000 62 46 72 1710
-0.03925000 5.31500006 0.04575000 62 46 72 1789
-0.03925000 5.31225014 0.04675000 56 41 62 1746
-0.03925000 5.31250000 0.04875000 57 40 59 2053
-0.03925000 5.31374979 0.04975000 57 40 59 1932
-0.03925000 5.31374979 0.05075000 61 44 62 1964
-0.03925000 5.31099987 0.05175000 61 44 62 1939
-0.03925000 5.31424999 0.05275000 61 42 62 1860
-0.03925000 5.31400013 0.05375000 61 42 62 1878
-0.03925000 5.31174994 0.05675000 64 38 65 1700
-0.03925000 5.31024981 0.05875000 63 34 64 1646
-0.03925000 5.30924988 0.05975000 62 33 63 1603
-0.03925000 5.31024981 0.06075000 62 33 63 1610
-0.03925000 5.31050014 0.06175000 64 35 65 1521
-0.03925000 5.31099987 0.06275000 64 35 65 1578
-0.03925000 5.30999994 0.06375000 66 35 66 1728
-0.03925000 5.30975008 0.06475000 66 35 66 1814
-0.03925000 5.30824995 0.06575000 66 35 66 2060
-0.03900000 5.30649996 0.06975000 62 33 63 1792
-0.03925000 5.30975008 0.07075000 63 34 64 1989
-0.03925000 5.30975008 0.07175000 63 34 64 1878
-0.03925000 5.30775023 0.07375000 63 37 66 1707
-0.03900000 5.30700016 0.07475000 66 41 71 1625
-0.03900000 5.30299997 0.07550000 66 41 71 1696
-0.03900000 5.30324984 0.07650000 66 41 71 1799
-0.03900000 5.30350018 0.07750000 69 46 75 1892
-0.03925000 5.30775023 0.07875000 69 46 75 2103
-0.03900000 5.30424976 0.07950000 64 45 73 2153
-0.03900000 5.30350018 0.08050000 64 45 73 2021
-0.03900000 5.30474997 0.08150000 59 43 70 2025
-0.03900000 5.30600023 0.08250000 59 43 70 2757
-0.03900000 5.30474997 0.08350000 64 51 77 4239
-0.03900000 5.30175018 0.08450000 64 51 77 7053
-0.03900000 5.30124998 0.08550000 64 51 77 11857
-0.03900000 5.30000019 0.08650000 87 74 100 18657
-0.03900000 5.30025005 0.08750000 87 74 100 23442
-0.03900000 5.30124998 0.08850000 106 98 122 27171
-0.03900000 5.30049992 0.08950000 106 98 122 28017
-0.03900000 5.29899979 0.09050000 143 139 164 30278
-0.03900000 5.29850006 0.09150000 143 139 164 32803
-0.03900000 5.29974985 0.09250000 162 160 184 32796
-0.03900000 5.29825020 0.09450000 166 164 186 31435
-0.03900000 5.29825020 0.09550000 166 164 186 31657
-0.03900000 5.29799986 0.09650000 166 164 186 30589
-0.03900000 5.29899979 0.09750000 153 154 174 30896
-0.03900000 5.29775000 0.09850000 153 154 174 30903
-0.03900000 5.29699993 0.09950000 154 155 173 31771
-0.03900000 5.29624987 0.10050000 154 155 173 32939
-0.03900000 5.29675007 0.10150000 162 164 177 31667
-0.03900000 5.29650021 0.10250000 162 164 177 26403
-0.03900000 5.29624987 0.10350000 157 160 169 16710
-0.03900000 5.29624987 0.10450000 157 160 169 7757
-0.03825000 5.32200003 0.01100000 129 116 123 13307
-0.03825000 5.32275009 0.01200000 129 116 123 22189
-0.03825000 5.32025003 0.01300000 136 126 137 26203
-0.03825000 5.31974983 0.01400000 136 126 137 28171
-0.03825000 5.31974983 0.01500000 147 139 154 30660
-0.03825000 5.32124996 0.01625000 147 139 154 32535
-0.03825000 5.31974983 0.01725000 151 148 167 32432
-0.03825000 5.32049990 0.01825000 151 148 167 32307
-0.03825000 5.32100010 0.01925000 145 147 172 31850
-0.03825000 5.32000017 0.02025000 145 147 172 31414
-0.03825000 5.31899977 0.02100000 145 147 172 31974
-0.03825000 5.31825018 0.02200000 146 150 179 31867
-0.03825000 5.31825018 0.02300000 146 150 179 30885
-0.03825000 5.31699991 0.02400000 149 150 180 28910
-0.03825000 5.31850004 0.02500000 149 150 180 27742
-0.03825000 5.31750011 0.02600000 140 139 171 22835
-0.03825000 5.31599998 0.02700000 140 139 171 15992
-0.03825000 5.31624985 0.02800000 118 114 149 8935
-0.03825000 5.31650019 0.02900000 118 114 149 4703
-0.03825000 5.31599998 0.03000000 118 114 149 2753
-0.03825000 5.31825018 0.03125000 90 82 121 2207
-0.03825000 5.31850004 0.03525000 51 36 75 1835
-0.03825000 5.31500006 0.03600000 51 36 75 1810
-0.03825000 5.31874990 0.03725000 56 40 77 1696
-0.03825000 5.31374979 0.03800000 56 40 77 1675
-0.03825000 5.31724977 0.04025000 54 38 74 1782
-0.03825000 5.31549978 0.04225000 57 40 72 1807
-0.03825000 5.31274986 0.04300000 57 40 72 1807
-0.03825000 5.31274986 0.04400000 60 41 69 1682
-0.03825000 5.31349993 0.04500000 60 41 69 1667
-0.03825000 5.31650019 0.04625000 56 38 60 1735
-0.03825000 5.31424999 0.04700000 56 38 60 1871
-0.03825000 5.31349993 0.04900000 57 40 58 1771
-0.03825000 5.31274986 0.05000000 57 40 58 1746
