//X Y Z R G B Intensity
0.79549998 19.53590012 0.40770000 205 207 220 29671
0.79549998 19.53680038 0.40869999 205 207 220 29989
0.79549998 19.53680038 0.40970001 220 223 238 30307
0.79549998 19.53660011 0.41170001 220 223 238 30632
0.79549998 19.53610039 0.41270000 220 223 238 30089
0.79549998 19.53590012 0.41360000 220 223 238 29882
0.79549998 19.53490067 0.41460001 220 223 238 29267
0.79540002 19.53429985 0.41560000 220 223 238 28299
0.79540002 19.53389931 0.41650000 220 223 238 27307
0.79540002 19.53429985 0.41949999 204 210 226 19267
0.79540002 19.53429985 0.42050001 204 210 226 13353
0.79540002 19.53289986 0.42340001 204 210 226 3725
0.79540002 19.53249931 0.42539999 174 179 198 2121
0.79530001 19.53129959 0.43130001 174 179 198 4089
0.79519999 19.52980042 0.43230000 174 179 198 5710
0.79519999 19.52980042 0.43329999 134 136 157 8717
0.79530001 19.53070068 0.43430001 134 136 157 13025
0.79530001 19.53009987 0.43529999 134 136 157 17528
0.79519999 19.52910042 0.43619999 134 136 157 20803
0.79530001 19.52980042 0.43720001 134 136 157 24492
0.79519999 19.52840042 0.43820000 134 136 157 26132
0.79519999 19.52790070 0.43910000 134 136 157 26957
0.79519999 19.52809906 0.44010001 134 136 157 27742
0.79519999 19.52799988 0.44110000 134 136 157 28385
0.79519999 19.52790070 0.44209999 172 174 195 28960
0.79519999 19.52759933 0.44310001 172 174 195 28289
0.79509997 19.52700043 0.44409999 172 174 195 28764
0.79509997 19.52669907 0.44610000 172 174 195 27475
0.79509997 19.52589989 0.44710001 172 174 195 26128
0.79509997 19.52589989 0.44909999 172 174 195 27296
0.79500002 19.52449989 0.45100001 200 201 221 28567
0.79509997 19.52499962 0.45300001 200 201 221 29553
0.79500002 19.52429962 0.45400000 200 201 221 29757
0.79500002 19.52319908 0.45690000 200 201 221 30389
0.79500002 19.52300072 0.45789999 202 203 221 30389
0.79500002 19.52280045 0.46079999 202 203 221 30389
0.79500002 19.52239990 0.46180001 202 203 221 30389
0.79490000 19.52199936 0.46280000 202 203 221 29753
0.79490000 19.52179909 0.46380001 202 203 221 28660
0.79490000 19.52009964 0.46770000 214 213 227 29442
0.79490000 19.52109909 0.46869999 214 213 227 30825
0.79490000 19.52039909 0.47070000 214 213 227 31385
0.79479998 19.51939964 0.47270000 214 213 227 30707
0.79479998 19.51950073 0.47560000 228 228 238 30385
0.79479998 19.51939964 0.47659999 228 228 238 29342
0.79479998 19.51770020 0.47850001 228 228 238 28271
0.79470003 19.51700020 0.47950000 228 228 238 28178
0.79479998 19.51860046 0.48050001 228 228 238 25882
0.79470003 19.51720047 0.48150000 228 228 238 21960
0.79689997 19.54450035 0.37959999 122 110 120 29900
0.79680002 19.54249954 0.38350001 122 110 120 28692
0.79680002 19.54150009 0.39039999 197 189 202 29682
0.79680002 19.54170036 0.39140001 197 189 202 29682
0.79670000 19.54109955 0.39340001 223 219 234 29078
0.79670000 19.54000092 0.39640000 223 219 234 28496
0.79670000 19.53930092 0.39730000 223 219 234 28403
0.79670000 19.53890038 0.39829999 223 219 234 28689
0.79659998 19.53840065 0.39919999 223 219 234 28307
0.79659998 19.53759956 0.40210000 216 215 231 27400
0.79659998 19.53730011 0.40310001 216 215 231 27400
0.79659998 19.53730011 0.40500000 216 215 231 28214
0.79659998 19.53689957 0.40599999 216 215 231 28210
0.79650003 19.53590012 0.40799999 216 215 231 29167
0.79659998 19.53700066 0.40900001 208 210 225 28975
0.79650003 19.53580093 0.41100001 208 210 225 30089
0.79650003 19.53540039 0.41499999 208 210 225 27932
0.79640001 19.53350067 0.41589999 208 210 225 27392
0.79650003 19.53450012 0.41790000 166 169 186 22625
0.79640001 19.53300095 0.42089999 166 169 186 7028
0.79629999 19.53070068 0.42969999 121 124 143 1971
0.79629999 19.53020096 0.43279999 121 124 143 5146
0.79629999 19.52890015 0.43380001 87 89 110 7578
0.79629999 19.52919960 0.43480000 87 89 110 10889
0.79619998 19.52849960 0.43579999 87 89 110 16232
0.79629999 19.52960014 0.43680000 87 89 110 20703
0.79619998 19.52799988 0.43770000 87 89 110 24353
0.79619998 19.52799988 0.43869999 87 89 110 26132
0.79619998 19.52729988 0.43970001 87 89 110 27917
0.79629999 19.52869987 0.44170001 121 121 145 29764
0.79619998 19.52799988 0.44270000 121 121 145 28960
0.79619998 19.52740097 0.44360000 121 121 145 29153
0.79619998 19.52740097 0.44459999 121 121 145 28385
0.79619998 19.52650070 0.44659999 121 121 145 26371
0.79619998 19.52669907 0.44749999 121 121 145 26371
0.79610002 19.52510071 0.44850001 121 121 145 26867
0.79610002 19.52549934 0.44949999 182 180 202 27825
0.79610002 19.52529907 0.45150000 182 180 202 30285
0.79610002 19.52499962 0.45249999 182 180 202 29553
0.79610002 19.52370071 0.45440000 182 180 202 30175
0.79610002 19.52339935 0.45539999 182 180 202 30067
0.79600000 19.52289963 0.46030000 214 213 231 29350
0.79600000 19.52280045 0.46219999 214 213 231 29753
0.79600000 19.52149963 0.46410000 214 213 231 29960
0.79600000 19.52109909 0.46910000 212 210 224 29857
0.79589999 19.52000046 0.47000000 212 210 224 30600
0.79589999 19.51930046 0.47099999 212 210 224 30600
0.79589999 19.52079964 0.47209999 212 210 224 31046
0.79589999 19.52000046 0.47409999 214 212 223 30600
0.79579997 19.51819992 0.47499999 214 212 223 30057
0.79579997 19.51740074 0.47790000 214 212 223 28942
0.79579997 19.51729965 0.47990000 214 212 223 27635
0.79579997 19.51790047 0.48089999 214 212 223 25417
0.79780000 19.54439926 0.37810001 122 110 120 28132
0.79780000 19.54439926 0.38000000 122 110 120 29900
0.79780000 19.54360008 0.38100001 122 110 120 30103
0.79780000 19.54430008 0.38200000 122 110 120 29689
0.79769999 19.54199982 0.38400000 122 110 120 28407
0.79780000 19.54280090 0.38499999 197 189 202 28692
0.79769999 19.54229927 0.38800001 197 189 202 28985
0.79769999 19.54179955 0.38900000 197 189 202 28128
0.79769999 19.54100037 0.38999999 197 189 202 27403
0.79759997 19.54000092 0.39089999 197 189 202 27578
0.79769999 19.54050064 0.39190000 197 189 202 28128
0.79769999 19.54150009 0.39289999 223 219 234 28128
0.79759997 19.54010010 0.39390001 223 219 234 27846
0.79759997 19.53980064 0.39489999 223 219 234 27939
0.79769999 19.54050064 0.39590001 223 219 234 28496
0.79759997 19.53949928 0.39780000 223 219 234 27492
0.79759997 19.53879929 0.39879999 223 219 234 26975
0.79759997 19.53899956 0.39980000 223 219 234 26889
0.79759997 19.53800011 0.40079999 216 215 231 27142
0.79759997 19.53829956 0.40180001 216 215 231 26975
0.79750001 19.53689957 0.40279999 216 215 231 27228
0.79750001 19.53730011 0.40580001 216 215 231 28589
0.79750001 19.53660011 0.40680000 216 215 231 29571
0.79750001 19.53649902 0.41069999 208 210 225 30089
0.79750001 19.53560066 0.41170001 208 210 225 30303
0.79740000 19.53540039 0.41270000 208 210 225 30196
0.79740000 19.53440094 0.41360000 208 210 225 29464
0.79740000 19.53420067 0.41460001 208 210 225 27928
0.79740000 19.53540039 0.41560000 208 210 225 26967
0.79740000 19.53359985 0.41650000 208 210 225 25146
0.79740000 19.53350067 0.41749999 166 169 186 20225
0.79740000 19.53450012 0.41850001 166 169 186 14707
0.79740000 19.53310013 0.41949999 166 169 186 8878
0.79740000 19.53339958 0.42240000 166 169 186 2900
0.79720002 19.52960014 0.43230000 121 124 143 2689
0.79720002 19.52989960 0.43329999 87 89 110 3796
0.79720002 19.52899933 0.43419999 87 89 110 5685
0.79720002 19.52910042 0.43619999 87 89 110 12789
0.79720002 19.52919960 0.43720001 87 89 110 17892
0.79720002 19.52919960 0.43820000 87 89 110 21867
0.79720002 19.52919960 0.43920001 87 89 110 24850
0.79710001 19.52750015 0.44310001 121 121 145 28289
0.79710001 19.52659988 0.44409999 121 121 145 28571
0.79710001 19.52619934 0.44510001 121 121 145 27557
0.79710001 19.52619934 0.44610000 121 121 145 26700
0.79699999 19.52479935 0.45109999 182 180 202 30285
0.79689997 19.52249908 0.45789999 214 213 231 29046
0.79689997 19.52199936 0.46090001 214 213 231 28189
0.79689997 19.52079964 0.46480000 214 213 231 29346
0.79680002 19.52020073 0.46669999 212 210 224 29857
0.79689997 19.52059937 0.46770000 212 210 224 29960
0.79689997 19.52029991 0.46869999 212 210 224 30060
0.79680002 19.51989937 0.47070000 212 210 224 30821
0.79689997 19.52059937 0.47170001 212 210 224 31500
0.79680002 19.51849937 0.47360000 212 210 224 30707
0.79680002 19.51829910 0.47459999 214 212 223 29957
0.79680002 19.51849937 0.47560000 214 212 223 29139
0.79680002 19.51819992 0.47659999 214 212 223 29135
0.79680002 19.51790047 0.47860000 214 212 223 28846
0.79879999 19.54509926 0.37770000 122 110 120 28796
0.79879999 19.54470062 0.38060001 122 110 120 28892
0.79879999 19.54400063 0.38260001 122 110 120 28599
0.79869998 19.54290009 0.38350001 122 110 120 28889
0.79869998 19.54190063 0.38450000 197 189 202 28407
0.79869998 19.54210091 0.38550001 197 189 202 28499
0.79869998 19.54210091 0.38749999 197 189 202 28128
0.79869998 19.54170036 0.38949999 197 189 202 27235
0.79869998 19.54080009 0.39250001 197 189 202 28407
0.79860002 19.53960037 0.39340001 223 219 234 28978
0.79860002 19.54050064 0.39440000 223 219 234 29378
0.79860002 19.53960037 0.39539999 223 219 234 28307
0.79860002 19.53910065 0.39629999 223 219 234 28214
0.79860002 19.53989983 0.39730000 223 219 234 26892
0.79860002 19.53949928 0.39919999 223 219 234 26721
0.79860002 19.53860092 0.40020001 223 219 234 26975
0.79860002 19.53840065 0.40120000 216 215 231 27053
0.79850000 19.53700066 0.40310001 216 215 231 27757
0.79850000 19.53639984 0.40500000 216 215 231 27757
0.79850000 19.53669930 0.40599999 216 215 231 28782
0.79850000 19.53639984 0.40799999 216 215 231 28975
0.79850000 19.53619957 0.40900001 208 210 225 29167
0.79850000 19.53669930 0.41000000 208 210 225 29471
0.79839998 19.53560066 0.41100001 208 210 225 28971
0.79839998 19.53450012 0.41190001 208 210 225 28971
0.79839998 19.53580093 0.41299999 208 210 225 28489
0.79839998 19.53529930 0.41400000 208 210 225 28489
0.79839998 19.53490067 0.41700000 166 169 186 17825
0.79820001 19.53000069 0.43380001 87 89 110 3639
0.79809999 19.52799988 0.43680000 87 89 110 12296
0.79809999 19.52820015 0.43779999 87 89 110 17003
0.79820001 19.52939987 0.43880001 87 89 110 21589
0.79809999 19.52840042 0.43979999 87 89 110 24850
0.79809999 19.52829933 0.44080001 87 89 110 27214
0.79820001 19.52849960 0.44170001 121 121 145 28575
0.79809999 19.52759933 0.44270000 121 121 145 28571
0.79809999 19.52680016 0.44360000 121 121 145 28103
0.79809999 19.52750015 0.44459999 121 121 145 28385
0.79809999 19.52619934 0.44560000 121 121 145 27825
0.79809999 19.52650070 0.44659999 121 121 145 27382
0.79809999 19.52639961 0.44850001 121 121 145 28571
0.79799998 19.52519989 0.44949999 182 180 202 29353
0.79799998 19.52529907 0.45050001 182 180 202 29967
0.79799998 19.52420044 0.45249999 182 180 202 29146
0.79799998 19.52420044 0.45350000 182 180 202 28760
0.79799998 19.52319908 0.45640001 182 180 202 28660
0.79799998 19.52330017 0.45829999 214 213 231 28564
0.79790002 19.52249908 0.46120000 214 213 231 28100
0.79790002 19.52169991 0.46210000 214 213 231 28757
0.79790002 19.52109909 0.46410000 214 213 231 29346
0.79790002 19.52070045 0.46509999 214 213 231 29142
0.79790002 19.52109909 0.46709999 212 210 224 29546
0.79790002 19.52099991 0.47009999 212 210 224 29142
0.79769999 19.51799965 0.47600001 214 212 223 28092
0.79769999 19.51819992 0.48089999 214 212 223 25271
0.79979998 19.54380035 0.37909999 122 110 120 29482
0.79979998 19.54330063 0.38100001 122 110 120 28221
0.79979998 19.54280090 0.38200000 122 110 120 28596
0.79979998 19.54290009 0.38310000 122 110 120 28314
0.79979998 19.54380035 0.38409999 122 110 120 27585
0.79970002 19.54179955 0.38510001 197 189 202 28310
0.79979998 19.54260063 0.38710001 197 189 202 27500
0.79970002 19.54170036 0.38800001 197 189 202 26892
0.79970002 19.54159927 0.38900000 197 189 202 26978
0.79970002 19.54109955 0.39199999 197 189 202 29892
0.79970002 19.53960037 0.39289999 223 219 234 31535
0.79970002 19.54059982 0.39390001 223 219 234 31082
0.79970002 19.54070091 0.39489999 223 219 234 30314
0.79970002 19.53930092 0.39680001 223 219 234 27935
0.79970002 19.53989983 0.39780000 223 219 234 27057
0.79970002 19.53940010 0.39879999 223 219 234 26721
0.79960001 19.53840065 0.39980000 223 219 234 27232
0.79970002 19.53919983 0.40079999 216 215 231 27578
0.79960001 19.53709984 0.40270001 216 215 231 28492
0.79960001 19.53789902 0.40380001 216 215 231 28589
0.79960001 19.53720093 0.40480000 216 215 231 28782
0.79949999 19.53619957 0.40580001 216 215 231 27842
0.79949999 19.53619957 0.40680000 216 215 231 28585
0.79960001 19.53709984 0.40779999 216 215 231 29071
0.79960001 19.53669930 0.40880001 216 215 231 30414
0.79949999 19.53590012 0.40970001 208 210 225 30089
0.79949999 19.53569984 0.41069999 208 210 225 29267
0.79949999 19.53639984 0.41170001 208 210 225 28303
0.79949999 19.53509903 0.41460001 208 210 225 24364
0.79949999 19.53529930 0.41659999 208 210 225 12425
0.79949999 19.53400040 0.41760001 166 169 186 7535
0.79949999 19.53459930 0.41859999 166 169 186 5164
0.79939997 19.53350067 0.42250001 166 169 186 1664
0.79939997 19.53170013 0.42440000 166 169 186 1421
0.79930001 19.53020096 0.43329999 87 89 110 2460
0.79930001 19.52939987 0.43430001 87 89 110 3182
0.79930001 19.52960014 0.43619999 87 89 110 6450
0.79920000 19.52829933 0.43720001 87 89 110 10328
0.79920000 19.52799988 0.43820000 87 89 110 14753
0.79920000 19.52790070 0.43910000 87 89 110 20310
0.79920000 19.52779961 0.44110000 87 89 110 26132
0.79920000 19.52799988 0.44310001 121 121 145 28767
0.79920000 19.52700043 0.44610000 121 121 145 28385
0.79909998 19.52600098 0.44810000 121 121 145 28285
0.79909998 19.52460098 0.44999999 182 180 202 28003
0.79909998 19.52499962 0.45199999 182 180 202 27378
0.79900002 19.52370071 0.45500001 182 180 202 28471
0.79900002 19.52309990 0.45789999 214 213 231 28857
0.79900002 19.52210045 0.45980000 214 213 231 28564
0.79900002 19.52230072 0.46380001 214 213 231 29246
0.79890001 19.52070045 0.46480000 214 213 231 29346
0.79890001 19.52079964 0.46570000 212 210 224 29242
0.79890001 19.52090073 0.46669999 212 210 224 29546
0.79890001 19.52039909 0.47070000 212 210 224 28946
0.79879999 19.51749992 0.47760001 214 212 223 28653
0.79879999 19.51829910 0.47950000 214 212 223 28275
0.79879999 19.51860046 0.48050001 214 212 223 23932
0.80080003 19.54409981 0.37860000 122 110 120 28889
0.80080003 19.54430008 0.37959999 122 110 120 28410
0.80070001 19.54310036 0.38060001 122 110 120 28596
0.80070001 19.54350090 0.38159999 122 110 120 28035
0.80070001 19.54360008 0.38260001 122 110 120 27853
0.80070001 19.54350090 0.38450000 197 189 202 27239
0.80070001 19.54210091 0.38550001 197 189 202 27060
0.80070001 19.54280090 0.38650000 197 189 202 26157
0.80070001 19.54220009 0.38749999 197 189 202 26153
0.80059999 19.54109955 0.38850001 197 189 202 27496
0.80059999 19.54109955 0.38949999 197 189 202 28596
0.80059999 19.54059982 0.39050001 197 189 202 29475
0.80059999 19.54109955 0.39150000 197 189 202 30207
0.80059999 19.54100037 0.39250001 197 189 202 30967
0.80059999 19.54109955 0.39350000 223 219 234 31310
0.80059999 19.54080009 0.39440000 223 219 234 30421
0.80059999 19.54030037 0.39539999 223 219 234 28689
0.80059999 19.53989983 0.39730000 223 219 234 26310
0.80049998 19.53840065 0.39829999 223 219 234 26639
0.80059999 19.53940010 0.39930001 223 219 234 27232
0.80049998 19.53720093 0.40210000 216 215 231 29675
0.80049998 19.53879929 0.40310001 216 215 231 29275
0.80049998 19.53800011 0.40509999 216 215 231 28307
0.80040002 19.53639984 0.40599999 216 215 231 28210
0.80040002 19.53649902 0.40700001 216 215 231 28685
0.80049998 19.53730011 0.40799999 216 215 231 29471
0.80040002 19.53590012 0.40900001 208 210 225 29985
0.80040002 19.53680038 0.41000000 208 210 225 30089
0.80040002 19.53639984 0.41100001 208 210 225 29071
0.80040002 19.53529930 0.41299999 208 210 225 26800
0.80040002 19.53490067 0.41400000 208 210 225 22992
0.80030000 19.53380013 0.41790000 166 169 186 5103
0.80030000 19.53380013 0.41990000 166 169 186 2632
0.80030000 19.53300095 0.42379999 166 169 186 1467
0.80010003 19.52980042 0.43279999 121 124 143 1789
0.80010003 19.52809906 0.43680000 87 89 110 5328
0.80010003 19.52930069 0.43779999 87 89 110 8246
0.80010003 19.52869987 0.43880001 87 89 110 12385
0.80010003 19.52820015 0.43970001 87 89 110 16839
0.80010003 19.52849960 0.44069999 87 89 110 21646
0.80000001 19.52659988 0.44360000 121 121 145 27560
0.80000001 19.52709961 0.44459999 121 121 145 27300
0.80000001 19.52700043 0.44659999 121 121 145 28571
0.80000001 19.52510071 0.44949999 182 180 202 28860
0.80000001 19.52479935 0.45050001 182 180 202 27825
0.79990000 19.52319908 0.45539999 182 180 202 27735
0.79990000 19.52269936 0.45730001 182 180 202 28467
0.79979998 19.52210045 0.46120000 214 213 231 28375
0.79990000 19.52239990 0.46320000 214 213 231 28100
0.79979998 19.52099991 0.46410000 214 213 231 28560
0.79979998 19.52160072 0.46509999 214 213 231 29046
0.79979998 19.52059937 0.46709999 212 210 224 29646
0.79979998 19.52070045 0.46810001 212 210 224 30064
0.79970002 19.51939964 0.47110000 212 210 224 28371
0.79979998 19.52029991 0.47209999 212 210 224 28753
0.79970002 19.51889992 0.47499999 214 212 223 28849
0.79970002 19.51829910 0.47700000 214 212 223 28371
0.79960001 19.51729965 0.47790000 214 212 223 28557
0.79970002 19.51759911 0.47889999 214 212 223 28846
0.79970002 19.51779938 0.47990000 214 212 223 27367
0.80180001 19.54450035 0.37709999 122 110 120 28035
0.80180001 19.54360008 0.37810001 122 110 120 28503
0.80180001 19.54339981 0.38110000 122 110 120 27585
0.80180001 19.54330063 0.38310000 122 110 120 27675
0.80180001 19.54350090 0.38409999 122 110 120 27678
0.80180001 19.54319954 0.38510001 197 189 202 27325
0.80170000 19.54140091 0.38600001 197 189 202 26892
0.80170000 19.54229927 0.38710001 197 189 202 26235
0.80170000 19.54150009 0.38900000 197 189 202 28221
0.80170000 19.54070091 0.38999999 197 189 202 28982
0.80170000 19.54190063 0.39100000 197 189 202 29996
0.80159998 19.54000092 0.39390001 223 219 234 29578
0.80170000 19.54059982 0.39489999 223 219 234 28496
0.80159998 19.53960037 0.39590001 223 219 234 27146
0.80170000 19.54010010 0.39680001 223 219 234 26892
0.80159998 19.53960037 0.39780000 223 219 234 27232
0.80159998 19.53960037 0.39879999 223 219 234 27146
0.80159998 19.53949928 0.39980000 223 219 234 27403
0.80159998 19.53910065 0.40180001 216 215 231 29678
0.80159998 19.53829956 0.40279999 216 215 231 30525
0.80150002 19.53700066 0.40580001 216 215 231 28025
0.80150002 19.53720093 0.40680000 216 215 231 28492
0.80150002 19.53560066 0.40770000 216 215 231 28778
0.80150002 19.53569984 0.41069999 208 210 225 29671
0.80140001 19.53520012 0.41170001 208 210 225 28021
0.80150002 19.53549957 0.41360000 208 210 225 19185
0.80140001 19.53429985 0.41460001 208 210 225 13460
0.80140001 19.53499985 0.41659999 208 210 225 5260
0.80140001 19.53470039 0.41850001 166 169 186 2603
0.80140001 19.53420067 0.41949999 166 169 186 2103
0.80119997 19.52919960 0.43619999 87 89 110 3246
0.80119997 19.52969933 0.43720001 87 89 110 4821
0.80119997 19.52899933 0.43820000 87 89 110 7096
0.80119997 19.52829933 0.43910000 87 89 110 11203
0.80119997 19.52890015 0.44010001 87 89 110 16114
0.80110002 19.52770042 0.44110000 87 89 110 20853
0.80110002 19.52560043 0.44610000 121 121 145 28471
0.80100000 19.52499962 0.44810000 121 121 145 29757
0.80100000 19.52540016 0.44909999 121 121 145 28103
0.80100000 19.52490044 0.45010000 182 180 202 28192
0.80100000 19.52510071 0.45400000 182 180 202 29149
0.80100000 19.52370071 0.45500001 182 180 202 29753
0.80100000 19.52429962 0.45699999 182 180 202 29353
0.80100000 19.52330017 0.46090001 214 213 231 28467
0.80089998 19.52169991 0.46180001 214 213 231 27817
0.80089998 19.52230072 0.46280000 214 213 231 27821
0.80089998 19.52120018 0.46480000 214 213 231 28757
0.80089998 19.52120018 0.46579999 212 210 224 29046
0.80080003 19.52079964 0.46680000 212 210 224 29346
0.80080003 19.52050018 0.46980000 212 210 224 28464
0.80089998 19.52099991 0.47080001 212 210 224 27907
0.80080003 19.51950073 0.47470000 214 212 223 29139
0.80070001 19.51790047 0.47560000 214 212 223 28460
0.80070001 19.51799965 0.47659999 214 212 223 27903
0.80080003 19.51889992 0.47760001 214 212 223 28946
0.80080003 19.51829910 0.47850001 214 212 223 28653
0.80070001 19.51759911 0.47950000 214 212 223 27460
0.80280000 19.54369926 0.38159999 122 110 120 28599
0.80269998 19.54220009 0.38249999 122 110 120 27850
0.80269998 19.54229927 0.38450000 197 189 202 27235
0.80269998 19.54260063 0.38650000 197 189 202 26478
0.80269998 19.54089928 0.38850001 197 189 202 27850
0.80260003 19.54050064 0.38949999 197 189 202 28496
0.80269998 19.54120064 0.39050001 197 189 202 28221
0.80260003 19.53989983 0.39140001 197 189 202 28882
0.80260003 19.54019928 0.39240000 197 189 202 28885
0.80260003 19.53930092 0.39340001 223 219 234 29275
0.80260003 19.54019928 0.39440000 223 219 234 27846
0.80260003 19.54039955 0.39539999 223 219 234 27582
0.80260003 19.53910065 0.39629999 223 219 234 27317
0.80260003 19.53910065 0.39820001 223 219 234 26975
0.80260003 19.53809929 0.39919999 223 219 234 26717
0.80260003 19.53849983 0.40410000 216 215 231 28978
0.80250001 19.53770065 0.40509999 216 215 231 29171
0.80250001 19.53759956 0.40709999 216 215 231 27757
0.80250001 19.53599930 0.41000000 208 210 225 28682
0.80250001 19.53599930 0.41200000 208 210 225 23492
0.80239999 19.53479958 0.41400000 208 210 225 11732
0.80239999 19.53339958 0.41690001 166 169 186 3253
0.80239999 19.53369904 0.41990000 166 169 186 1653
0.80229998 19.53269958 0.42179999 166 169 186 1442
0.80220002 19.53059959 0.42780000 121 124 143 1232
0.80220002 19.53000069 0.43079999 121 124 143 1310
0.80220002 19.53020096 0.43480000 87 89 110 1885
0.80210000 19.52820015 0.43970001 87 89 110 9928
0.80210000 19.52700043 0.44069999 87 89 110 14825
0.80210000 19.52790070 0.44170001 121 121 145 19571
0.80210000 19.52680016 0.44560000 121 121 145 28107
0.80199999 19.52569962 0.44760001 121 121 145 28957
0.80199999 19.52560043 0.44859999 121 121 145 28667
0.80199999 19.52499962 0.44949999 182 180 202 28664
0.80199999 19.52449989 0.45150000 182 180 202 28760
0.80199999 19.52389908 0.45249999 182 180 202 29350
0.80199999 19.52359962 0.45339999 182 180 202 29653
0.80199999 19.52389908 0.45440000 182 180 202 30392
0.80199999 19.52449989 0.45539999 182 180 202 30610
0.80199999 19.52350044 0.45629999 182 180 202 30067
0.80190003 19.52219963 0.45919999 214 213 231 30389
0.80180001 19.52029991 0.46610001 212 210 224 29242
0.80190003 19.52129936 0.46720001 212 210 224 29246
0.80180001 19.52039909 0.46810001 212 210 224 29546
0.80180001 19.52039909 0.47009999 212 210 224 29142
0.80180001 19.52029991 0.47110000 212 210 224 29046
0.80180001 19.51969910 0.47209999 212 210 224 29542
0.80180001 19.51939964 0.47400001 214 212 223 29342
0.80180001 19.51880074 0.47499999 214 212 223 28275
0.80170000 19.51749992 0.47790000 214 212 223 28271
0.80170000 19.51840019 0.47990000 214 212 223 24000
0.80369997 19.54439926 0.37909999 122 110 120 29482
0.80369997 19.54389954 0.38209999 122 110 120 28599
0.80369997 19.54339981 0.38409999 122 110 120 27942
0.80369997 19.54220009 0.38609999 197 189 202 26725
0.80360001 19.54159927 0.38710001 197 189 202 26892
0.80369997 19.54229927 0.38800001 197 189 202 27850
0.80360001 19.54080009 0.38900000 197 189 202 28692
0.80360001 19.54070091 0.38999999 197 189 202 28789
0.80360001 19.54089928 0.39289999 223 219 234 27850
0.80360001 19.54059982 0.39390001 223 219 234 26978
0.80360001 19.54089928 0.39489999 223 219 234 27496
0.80350000 19.53849983 0.39680001 223 219 234 27053
0.80360001 19.54000092 0.39780000 223 219 234 26475
0.80350000 19.53940010 0.39879999 223 219 234 26889
0.80350000 19.53849983 0.39980000 223 219 234 27400
0.80350000 19.53919983 0.40079999 216 215 231 27939
0.80339998 19.53700066 0.40480000 216 215 231 28303
0.80339998 19.53619957 0.40580001 216 215 231 28121
0.80339998 19.53580093 0.40680000 216 215 231 27757
0.80339998 19.53689957 0.40779999 216 215 231 28025
0.80339998 19.53619957 0.40869999 216 215 231 27842
0.80339998 19.53569984 0.40970001 208 210 225 26225
0.80339998 19.53649902 0.41069999 208 210 225 22992
0.80339998 19.53610039 0.41270000 208 210 225 11828
0.80339998 19.53490067 0.41460001 208 210 225 4867
0.80330002 19.53470039 0.41650000 208 210 225 2382
0.80330002 19.53470039 0.41749999 166 169 186 1846
0.80330002 19.53300095 0.42150000 166 169 186 1267
0.80320001 19.53179932 0.42640001 121 124 143 1185
0.80309999 19.52969933 0.43030000 121 124 143 1278
0.80309999 19.52880096 0.43820000 87 89 110 3467
0.80299997 19.52750015 0.44020000 87 89 110 8135
0.80299997 19.52740097 0.44119999 87 89 110 12039
0.80299997 19.52759933 0.44220001 121 121 145 16328
0.80309999 19.52809906 0.44319999 121 121 145 19978
0.80299997 19.52720070 0.44420001 121 121 145 23742
0.80299997 19.52669907 0.44520000 121 121 145 26535
0.80299997 19.52580070 0.44710001 121 121 145 29053
0.80299997 19.52519989 0.44810000 121 121 145 29250
0.80299997 19.52639961 0.44909999 121 121 145 28764
0.80290002 19.52420044 0.45199999 182 180 202 28471
0.80290002 19.52440071 0.45300001 182 180 202 28953
0.80290002 19.52460098 0.45400000 182 180 202 29967
0.80290002 19.52499962 0.45500001 182 180 202 31053
0.80290002 19.52379990 0.45600000 182 180 202 29964
0.80290002 19.52309990 0.45690000 182 180 202 29753
0.80290002 19.52280045 0.45890000 214 213 231 29350
0.80280000 19.52190018 0.46079999 214 213 231 28564
0.80280000 19.52090073 0.46370000 214 213 231 27117
0.80280000 19.52129936 0.46770000 212 210 224 29346
0.80280000 19.52140045 0.46869999 212 210 224 29750
0.80280000 19.52109909 0.46970001 212 210 224 29246
0.80269998 19.51939964 0.47070000 212 210 224 29139
0.80269998 19.51989937 0.47170001 212 210 224 29442
0.80269998 19.51919937 0.47260001 212 210 224 30167
0.80269998 19.51910019 0.47360000 212 210 224 29139
0.80269998 19.51810074 0.47450000 214 212 223 28557
0.80269998 19.51790047 0.47549999 214 212 223 28653
0.80260003 19.51759911 0.47749999 214 212 223 28942
0.80269998 19.51819992 0.47940001 214 212 223 26117
0.80470002 19.54369926 0.37950000 102 90 100 29385
0.80479997 19.54439926 0.38150001 102 90 100 29385
0.80470002 19.54319954 0.38450000 178 170 183 27767
0.80470002 19.54229927 0.38550001 178 170 183 27321
0.80470002 19.54269981 0.38650000 178 170 183 28410
0.80470002 19.54199982 0.38749999 178 170 183 28692
0.80470002 19.54229927 0.38850001 178 170 183 28789
0.80470002 19.54159927 0.38949999 178 170 183 29382
0.80460000 19.54019928 0.39240000 178 170 183 28407
0.80460000 19.53940010 0.39330000 222 216 230 27492
0.80460000 19.53940010 0.39430001 222 216 230 26975
0.80460000 19.54000092 0.39620000 222 216 230 26389
0.80449998 19.53910065 0.39719999 222 216 230 26071
0.80460000 19.53980064 0.39820001 222 216 230 27146
0.80460000 19.53949928 0.39910001 222 216 230 27403
0.80449998 19.53789902 0.40009999 222 216 230 27667
0.80449998 19.53870010 0.40110001 212 210 224 27935
0.80449998 19.53700066 0.40200001 212 210 224 28214
0.80449998 19.53720093 0.40300000 212 210 224 28399
0.80449998 19.53789902 0.40400001 212 210 224 28125
0.80449998 19.53759956 0.40500000 212 210 224 27935
0.80449998 19.53700066 0.40599999 212 210 224 28121
0.80440003 19.53610039 0.40799999 212 210 224 27489
0.80440003 19.53610039 0.40900001 179 178 194 25296
0.80440003 19.53590012 0.41000000 179 178 194 20710
0.80440003 19.53499985 0.41100001 179 178 194 15282
0.80430001 19.53420067 0.41290000 179 178 194 6285
0.80430001 19.53380013 0.41990000 117 118 136 1382
0.80419999 19.53190041 0.42480001 117 118 136 1221
0.80419999 19.53170013 0.42780000 72 73 93 1267
0.80409998 19.52910042 0.43470001 69 70 91 1507
0.80409998 19.52820015 0.43770000 69 70 91 2314
0.80409998 19.52880096 0.44060001 69 70 91 6492
0.80409998 19.52840042 0.44159999 78 76 98 9617
0.80409998 19.52709961 0.44350001 78 76 98 18046
0.80400002 19.52569962 0.44650000 78 76 98 27739
0.80400002 19.52589989 0.45050001 134 132 153 27471
0.80400002 19.52470016 0.45140001 134 132 153 27739
0.80390000 19.52389908 0.45240000 134 132 153 27646
0.80400002 19.52470016 0.45339999 134 132 153 28760
0.80390000 19.52429962 0.45440000 134 132 153 29653
0.80390000 19.52350044 0.45530000 134 132 153 30939
0.80390000 19.52280045 0.45629999 134 132 153 30175
0.80390000 19.52260017 0.45719999 134 132 153 29446
0.80390000 19.52280045 0.45919999 196 195 213 28857
0.80390000 19.52210045 0.46020001 196 195 213 28757
0.80390000 19.52319908 0.46219999 196 195 213 27646
0.80379999 19.52079964 0.46410000 196 195 213 28000
0.80379999 19.52090073 0.46509999 196 195 213 29346
0.80379999 19.52099991 0.46610001 219 217 231 30171
0.80379999 19.52050018 0.46709999 219 217 231 29646
0.80379999 19.52009964 0.46900001 219 217 231 29646
0.80379999 19.51989937 0.47200000 219 217 231 29646
0.80369997 19.51910019 0.47299999 219 217 231 28946
0.80369997 19.51959991 0.47600001 220 218 229 29646
0.80369997 19.51799965 0.47690001 220 218 229 29957
0.80369997 19.51759911 0.47790000 220 218 229 28749
0.80580002 19.54520035 0.37810001 102 90 100 27771
0.80570000 19.54409981 0.38110000 102 90 100 28599
0.80570000 19.54280090 0.38510001 178 170 183 27407
0.80559999 19.54100037 0.38990000 178 170 183 30096
0.80549997 19.54019928 0.39280000 222 216 230 28310
0.80549997 19.54010010 0.39480001 222 216 230 26475
0.80549997 19.54000092 0.39579999 222 216 230 26389
0.80549997 19.53899956 0.39680001 222 216 230 26150
0.80549997 19.53930092 0.39780000 222 216 230 26150
0.80549997 19.53910065 0.39879999 222 216 230 27492
0.80549997 19.53919983 0.39980000 222 216 230 28403
0.80549997 19.53870010 0.40079999 212 210 224 27935
0.80540001 19.53759956 0.40180001 212 210 224 28303
0.80540001 19.53709984 0.40279999 212 210 224 28121
0.80540001 19.53759956 0.40380001 212 210 224 29171
0.80540001 19.53759956 0.40669999 212 210 224 28121
0.80540001 19.53649902 0.40770000 212 210 224 26471
0.80540001 19.53649902 0.40970001 179 178 194 16750
0.80530000 19.53520012 0.41060001 179 178 194 11828
0.80530000 19.53499985 0.41260001 179 178 194 4771
0.80530000 19.53509903 0.41650000 179 178 194 1653
0.80530000 19.53389931 0.42050001 117 118 136 1221
0.80519998 19.53199959 0.42340001 117 118 136 1192
0.80519998 19.53170013 0.42739999 72 73 93 1335
0.80510002 19.53059959 0.43130001 72 73 93 1300
0.80510002 19.52930069 0.43320000 69 70 91 1260
0.80510002 19.52849960 0.43610001 69 70 91 1539
0.80500001 19.52759933 0.44010001 69 70 91 3957
0.80500001 19.52700043 0.44209999 78 76 98 8296
0.80500001 19.52650070 0.44510001 78 76 98 21321
0.80500001 19.52720070 0.44610000 78 76 98 24210
0.80500001 19.52669907 0.44710001 78 76 98 25660
0.80489999 19.52510071 0.44810000 78 76 98 27032
0.80500001 19.52659988 0.44909999 78 76 98 26871
0.80489999 19.52549934 0.45100001 134 132 153 27035
0.80489999 19.52470016 0.45300001 134 132 153 27646
0.80489999 19.52359962 0.45490000 134 132 153 29964
0.80479997 19.52300072 0.45680001 134 132 153 30067
0.80489999 19.52379990 0.45780000 196 195 213 29049
0.80479997 19.52140045 0.46180001 196 195 213 28278
0.80479997 19.52109909 0.46280000 196 195 213 28564
0.80470002 19.52079964 0.46470001 196 195 213 29346
0.80479997 19.52120018 0.46579999 219 217 231 29960
0.80470002 19.52090073 0.46770000 219 217 231 30603
0.80470002 19.52059937 0.46869999 219 217 231 29857
0.80470002 19.52059937 0.46970001 219 217 231 30825
0.80470002 19.52070045 0.47070000 219 217 231 29857
0.80470002 19.51899910 0.47260001 219 217 231 28371
0.80460000 19.51829910 0.47450000 220 218 229 27460
0.80460000 19.51799965 0.47650000 220 218 229 29039
0.80460000 19.51790047 0.47749999 220 218 229 28653
0.80460000 19.51799965 0.47940001 220 218 229 22192
0.80669999 19.54339981 0.37950000 102 90 100 27500
0.80669999 19.54360008 0.38049999 102 90 100 27767
0.80669999 19.54380035 0.38249999 102 90 100 26317
0.80659997 19.54269981 0.38350001 102 90 100 26725
0.80669999 19.54299927 0.38650000 178 170 183 28696
0.80659997 19.54140091 0.38749999 178 170 183 29582
0.80659997 19.54190063 0.38850001 178 170 183 30100
0.80659997 19.54179955 0.39050001 178 170 183 29996
0.80659997 19.54080009 0.39140001 178 170 183 29382
0.80650002 19.53960037 0.39430001 222 216 230 28496
0.80650002 19.53940010 0.39530000 222 216 230 27317
0.80650002 19.53960037 0.39620000 222 216 230 27232
0.80650002 19.54000092 0.39719999 222 216 230 26389
0.80650002 19.53930092 0.39820001 222 216 230 26807
0.80650002 19.53870010 0.39910001 222 216 230 27317
0.80650002 19.53910065 0.40009999 222 216 230 28496
0.80650002 19.53879929 0.40110001 212 210 224 28978
0.80650002 19.53779984 0.40210000 212 210 224 28978
0.80650002 19.53829956 0.40310001 212 210 224 28882
0.80640000 19.53730011 0.40400001 212 210 224 28589
0.80650002 19.53809929 0.40500000 212 210 224 28978
0.80640000 19.53569984 0.40700001 212 210 224 25600
0.80640000 19.53590012 0.41000000 179 178 194 9878
0.80640000 19.53520012 0.41190001 179 178 194 4010
0.80620003 19.53079987 0.42879999 72 73 93 1239
0.80610001 19.52899933 0.43970001 69 70 91 2460
0.80599999 19.52709961 0.44159999 78 76 98 4967
0.80599999 19.52639961 0.44260001 78 76 98 7432
0.80599999 19.52689934 0.44360000 78 76 98 11175
0.80599999 19.52759933 0.44459999 78 76 98 15525
0.80589998 19.52519989 0.44749999 78 76 98 26128
0.80589998 19.52529907 0.44850001 78 76 98 27210
0.80599999 19.52560043 0.44949999 134 132 153 27650
0.80589998 19.52529907 0.45050001 134 132 153 27739
0.80589998 19.52379990 0.45240000 134 132 153 27735
0.80589998 19.52400017 0.45530000 134 132 153 29049
0.80589998 19.52420044 0.45629999 134 132 153 29146
0.80589998 19.52309990 0.45730001 134 132 153 28857
0.80580002 19.52239990 0.45820001 196 195 213 27553
0.80580002 19.52260017 0.46110001 196 195 213 27910
0.80580002 19.52149963 0.46210000 196 195 213 27910
0.80580002 19.52160072 0.46309999 196 195 213 28564
0.80580002 19.52129936 0.46410000 196 195 213 27910
0.80580002 19.52219963 0.46509999 196 195 213 28660
0.80580002 19.52109909 0.46610001 219 217 231 30064
0.80580002 19.52109909 0.46700001 219 217 231 29860
0.80580002 19.52099991 0.46799999 219 217 231 29546
0.80580002 19.52070045 0.46900001 219 217 231 29750
0.80570000 19.52000046 0.47000000 219 217 231 29139
0.80570000 19.51939964 0.47099999 219 217 231 28464
0.80559999 19.51829910 0.47490001 220 218 229 28092
0.80570000 19.51860046 0.47589999 220 218 229 27996
0.80570000 19.51829910 0.47690001 220 218 229 28275
0.80570000 19.51880074 0.47790000 220 218 229 26360
0.80769998 19.54430008 0.38010001 102 90 100 27239
0.80769998 19.54310036 0.38409999 102 90 100 26396
0.80760002 19.54210091 0.38499999 178 170 183 26982
0.80760002 19.54210091 0.38600001 178 170 183 28128
0.80769998 19.54260063 0.38699999 178 170 183 28889
0.80760002 19.54210091 0.38800001 178 170 183 29896
0.80760002 19.54150009 0.38990000 178 170 183 29278
0.80760002 19.54050064 0.39190000 178 170 183 30203
0.80760002 19.54050064 0.39289999 222 216 230 30746
0.80760002 19.54039955 0.39379999 222 216 230 30203
0.80750000 19.53949928 0.39480001 222 216 230 28785
0.80750000 19.53960037 0.39579999 222 216 230 27939
0.80750000 19.53809929 0.39969999 222 216 230 28307
0.80750000 19.53800011 0.40070000 212 210 224 28125
0.80750000 19.53849983 0.40180001 212 210 224 27492
0.80750000 19.53809929 0.40279999 212 210 224 27492
0.80739999 19.53660011 0.40369999 212 210 224 28025
0.80739999 19.53689957 0.40470001 212 210 224 28399
0.80739999 19.53610039 0.41060001 179 178 194 4364
0.80729997 19.53330040 0.41949999 117 118 136 1267
0.80720001 19.53289986 0.42440000 117 118 136 1157
0.80720001 19.53109932 0.42539999 72 73 93 1142
0.80699998 19.52759933 0.44209999 78 76 98 4160
0.80699998 19.52650070 0.44409999 78 76 98 10007
0.80699998 19.52709961 0.44510001 78 76 98 14449
0.80699998 19.52589989 0.44710001 78 76 98 23160
0.80690002 19.52540016 0.44800001 78 76 98 25739
0.80690002 19.52490044 0.44900000 78 76 98 26696
0.80690002 19.52470016 0.44999999 134 132 153 27557
0.80690002 19.52490044 0.45100001 134 132 153 27210
0.80690002 19.52460098 0.45390001 134 132 153 26696
0.80690002 19.52440071 0.45590001 134 132 153 27825
0.80690002 19.52379990 0.45690000 134 132 153 27646
0.80680001 19.52280045 0.45879999 196 195 213 26950
0.80680001 19.52249908 0.45980000 196 195 213 27910
0.80680001 19.52199936 0.46079999 196 195 213 28000
0.80680001 19.52210045 0.46180001 196 195 213 28189
0.80680001 19.52149963 0.46280000 196 195 213 28375
0.80680001 19.52169991 0.46480000 196 195 213 28375
0.80680001 19.52199936 0.46579999 219 217 231 29246
0.80669999 19.52039909 0.46669999 219 217 231 29546
0.80669999 19.51989937 0.46970001 219 217 231 29242
0.80669999 19.52009964 0.47070000 219 217 231 28849
0.80669999 19.51880074 0.47160000 219 217 231 28092
0.80669999 19.51889992 0.47650000 220 218 229 28464
0.80659997 19.51770020 0.47749999 220 218 229 26771
0.80659997 19.51779938 0.47850001 220 218 229 23407
0.80860001 19.54310036 0.38350001 102 90 100 26810
0.80860001 19.54220009 0.38450000 178 170 183 26392
0.80860001 19.54190063 0.38650000 178 170 183 28032
0.80860001 19.54260063 0.38749999 178 170 183 29082
0.80860001 19.54190063 0.38850001 178 170 183 28596
0.80860001 19.54150009 0.38940001 178 170 183 28789
0.80849999 19.54019928 0.39039999 178 170 183 28982
0.80849999 19.53989983 0.39240000 178 170 183 30746
0.80849999 19.54039955 0.39330000 222 216 230 30746
0.80849999 19.53989983 0.39530000 222 216 230 28592
0.80849999 19.54019928 0.39620000 222 216 230 27764
0.80849999 19.53910065 0.39820001 222 216 230 29075
0.80849999 19.53919983 0.39910001 222 216 230 28978
0.80839998 19.53770065 0.40009999 222 216 230 27842
0.80839998 19.53789902 0.40210000 212 210 224 26639
0.80839998 19.53770065 0.40300000 212 210 224 27492
0.80839998 19.53789902 0.40400001 212 210 224 27492
0.80839998 19.53709984 0.40599999 212 210 224 22278
0.80830002 19.53639984 0.40700001 212 210 224 15703
0.80830002 19.53529930 0.41000000 179 178 194 4242
0.80830002 19.53520012 0.41600001 179 178 194 1432
0.80809999 19.53170013 0.42269999 117 118 136 1117
0.80809999 19.53129959 0.42370000 117 118 136 1096
0.80800003 19.52820015 0.44260001 78 76 98 3371
0.80800003 19.52740097 0.44459999 78 76 98 7375
0.80790001 19.52639961 0.44749999 78 76 98 20803
0.80790001 19.52540016 0.44850001 78 76 98 24207
0.80790001 19.52479935 0.44949999 134 132 153 25510
0.80790001 19.52600098 0.45050001 134 132 153 26621
0.80790001 19.52510071 0.45150000 134 132 153 25971
0.80779999 19.52409935 0.45240000 134 132 153 26289
0.80790001 19.52449989 0.45440000 134 132 153 26367
0.80779999 19.52330017 0.45719999 134 132 153 27914
0.80779999 19.52300072 0.45820001 196 195 213 28282
0.80779999 19.52199936 0.45919999 196 195 213 28278
0.80779999 19.52190018 0.46110001 196 195 213 28853
0.80779999 19.52190018 0.46210000 196 195 213 28757
0.80779999 19.52249908 0.46309999 196 195 213 29049
0.80769998 19.52160072 0.46410000 196 195 213 27817
0.80769998 19.52070045 0.46509999 196 195 213 27732
0.80769998 19.52160072 0.46610001 219 217 231 28949
0.80769998 19.52129936 0.46709999 219 217 231 28853
0.80769998 19.51959991 0.47009999 219 217 231 29542
0.80760002 19.51840019 0.47299999 219 217 231 28182
0.80760002 19.51829910 0.47490001 220 218 229 28182
0.80769998 19.51959991 0.47589999 220 218 229 28275
0.80760002 19.51860046 0.47690001 220 218 229 27546
0.80970001 19.54409981 0.38200000 102 90 100 28225
0.80970001 19.54310036 0.38299999 102 90 100 26896
0.80970001 19.54260063 0.38400000 102 90 100 25764
0.80970001 19.54220009 0.38499999 178 170 183 26896
0.80960000 19.54159927 0.38600001 178 170 183 27942
0.80960000 19.54129982 0.38699999 178 170 183 28692
0.80960000 19.54129982 0.38800001 178 170 183 28499
0.80960000 19.54100037 0.38890001 178 170 183 28407
0.80960000 19.54070091 0.38990000 178 170 183 28982
0.80970001 19.54179955 0.39089999 178 170 183 28885
0.80960000 19.53960037 0.39379999 222 216 230 28496
0.80960000 19.54050064 0.39480001 222 216 230 28789
0.80960000 19.53930092 0.39579999 222 216 230 28125
0.80960000 19.53989983 0.39680001 222 216 230 29175
0.80949998 19.53820038 0.40079999 212 210 224 27146
0.80949998 19.53730011 0.40279999 212 210 224 26471
0.80949998 19.53720093 0.40380001 212 210 224 25153
0.80949998 19.53759956 0.40480000 212 210 224 20714
0.80949998 19.53720093 0.40680000 212 210 224 9832
0.80949998 19.53680038 0.40770000 212 210 224 5717
0.80940002 19.53529930 0.40970001 179 178 194 2792
0.80940002 19.53479958 0.41260001 179 178 194 1550
0.80930001 19.53350067 0.41949999 117 118 136 1203
0.80919999 19.52969933 0.43419999 69 70 91 1185
0.80909997 19.52729988 0.44310001 78 76 98 3035
0.80900002 19.52630043 0.44409999 78 76 98 4514
0.80900002 19.52639961 0.44610000 78 76 98 10450
0.80900002 19.52569962 0.44700000 78 76 98 14549
0.80900002 19.52499962 0.44900000 78 76 98 22375
0.80890000 19.52370071 0.45590001 134 132 153 28192
0.80890000 19.52449989 0.45690000 134 132 153 29353
0.80890000 19.52359962 0.45789999 196 195 213 29550
0.80879998 19.52199936 0.45980000 196 195 213 28660
0.80879998 19.52190018 0.46079999 196 195 213 28096
0.80879998 19.52219963 0.46180001 196 195 213 28660
0.80879998 19.52190018 0.46280000 196 195 213 28757
0.80879998 19.52190018 0.46480000 196 195 213 28278
0.80879998 19.52000046 0.46680000 219 217 231 28375
0.80879998 19.52029991 0.46970001 219 217 231 28753
0.80879998 19.52020073 0.47070000 219 217 231 28560
0.80870003 19.51810074 0.47459999 220 218 229 28557
0.80870003 19.51810074 0.47549999 220 218 229 27460
0.80870003 19.51840019 0.47749999 220 218 229 23864
0.81070000 19.54400063 0.38150001 102 90 100 27239
0.81059998 19.54339981 0.38249999 102 90 100 26396
0.81059998 19.54240036 0.38350001 102 90 100 26314
0.81059998 19.54220009 0.38550001 178 170 183 28596
0.81059998 19.54190063 0.38650000 178 170 183 29382
0.81050003 19.54039955 0.38949999 178 170 183 28128
0.81050003 19.54089928 0.39050001 178 170 183 28310
0.81050003 19.54150009 0.39140001 178 170 183 28499
0.81050003 19.53989983 0.39340001 222 216 230 28310
0.81050003 19.53980064 0.39430001 222 216 230 28407
0.81050003 19.54059982 0.39530000 222 216 230 28982
0.81050003 19.54010010 0.39629999 222 216 230 29578
0.81050003 19.53960037 0.39719999 222 216 230 29892
0.81040001 19.53870010 0.40110001 212 210 224 26889
0.81040001 19.53730011 0.40310001 212 210 224 24225
0.81029999 19.53669930 0.40500000 212 210 224 15646
0.81029999 19.53660011 0.40599999 212 210 224 10417
0.81029999 19.53580093 0.40700001 212 210 224 6382
0.81029999 19.53649902 0.40799999 212 210 224 4182
0.81019998 19.53300095 0.42280000 117 118 136 1096
0.81010002 19.53149986 0.42580000 72 73 93 1250
0.81010002 19.53039932 0.42780000 72 73 93 1164
0.81010002 19.53079987 0.42980000 72 73 93 1075
0.81000000 19.53009987 0.43180001 72 73 93 964
0.81000000 19.52890015 0.43480000 69 70 91 1164
0.81000000 19.52899933 0.43669999 69 70 91 1185
0.80989999 19.52659988 0.44459999 78 76 98 3321
0.80989999 19.52729988 0.44560000 78 76 98 4785
0.80989999 19.52680016 0.44659999 78 76 98 7382
0.80989999 19.52589989 0.44749999 78 76 98 11321
0.80980003 19.52490044 0.44850001 78 76 98 15414
0.80989999 19.52540016 0.44949999 134 132 153 18960
0.80980003 19.52319908 0.45820001 196 195 213 29446
0.80970001 19.52179909 0.46020001 196 195 213 28000
0.80970001 19.52260017 0.46120000 196 195 213 27910
0.80970001 19.52169991 0.46210000 196 195 213 28660
0.80970001 19.52199936 0.46309999 196 195 213 28660
0.80970001 19.52260017 0.46419999 196 195 213 28760
0.80970001 19.52219963 0.46509999 196 195 213 28282
0.80970001 19.52109909 0.46610001 219 217 231 28660
0.80960000 19.51919937 0.47099999 219 217 231 27464
0.80960000 19.51889992 0.47200000 219 217 231 28185
0.80960000 19.51919937 0.47589999 220 218 229 27550
0.80960000 19.51889992 0.47690001 220 218 229 27025
0.80960000 19.51860046 0.47790000 220 218 229 23471
0.81160003 19.54389954 0.38209999 102 90 100 27767
0.81160003 19.54330063 0.38409999 102 90 100 27853
0.81160003 19.54150009 0.38600001 178 170 183 29078
0.81160003 19.54210091 0.38699999 178 170 183 28596
0.81160003 19.54240036 0.38800001 178 170 183 27853
0.81150001 19.54039955 0.38990000 178 170 183 27496
0.81150001 19.54030037 0.39190000 178 170 183 28496
0.81150001 19.54120064 0.39289999 222 216 230 28982
0.81150001 19.53960037 0.39480001 222 216 230 28785
0.81150001 19.53989983 0.39579999 222 216 230 29175
0.81150001 19.53949928 0.39680001 222 216 230 29175
0.81140000 19.53779984 0.40079999 212 210 224 26803
0.81140000 19.53739929 0.40180001 212 210 224 26067
0.81140000 19.53800011 0.40380001 212 210 224 17828
0.81140000 19.53720093 0.40570000 212 210 224 7942
0.81140000 19.53730011 0.40669999 212 210 224 5178
0.81129998 19.53610039 0.40970001 179 178 194 2035
0.81120002 19.53249931 0.42539999 72 73 93 1135
0.81110001 19.53109932 0.42930001 72 73 93 1003
0.81110001 19.53039932 0.43120000 72 73 93 964
0.81099999 19.52849960 0.43709999 69 70 91 1128
0.81099999 19.52669907 0.44409999 78 76 98 2289
0.81089997 19.52499962 0.44900000 78 76 98 14825
0.81089997 19.52440071 0.44999999 134 132 153 19703
0.81089997 19.52420044 0.45190001 134 132 153 25967
0.81089997 19.52470016 0.45289999 134 132 153 27296
0.81080002 19.52389908 0.45390001 134 132 153 27471
0.81080002 19.52350044 0.45590001 134 132 153 29353
0.81080002 19.52269936 0.45680001 134 132 153 28760
0.81080002 19.52359962 0.45780000 196 195 213 28192
0.81080002 19.52239990 0.45980000 196 195 213 25732
0.81070000 19.52160072 0.46180001 196 195 213 28564
0.81070000 19.52140045 0.46380001 196 195 213 29446
0.81070000 19.52090073 0.46480000 196 195 213 29046
0.81070000 19.52129936 0.46579999 219 217 231 29546
0.81070000 19.52090073 0.46669999 219 217 231 29960
0.81070000 19.51980019 0.46770000 219 217 231 28753
0.81070000 19.52020073 0.46869999 219 217 231 28278
0.81070000 19.51959991 0.46970001 219 217 231 27550
0.81059998 19.51889992 0.47360000 219 217 231 28753
0.81059998 19.51829910 0.47549999 220 218 229 27728
0.81059998 19.51779938 0.47650000 220 218 229 24760
0.81269997 19.54389954 0.38249999 82 69 78 28599
0.81260002 19.54369926 0.38350001 82 69 78 28503
0.81260002 19.54269981 0.38550001 143 133 144 30000
0.81260002 19.54159927 0.38650000 143 133 144 28499
0.81250000 19.54140091 0.38749999 143 133 144 27496
0.81250000 19.54050064 0.38839999 143 133 144 26978
0.81260002 19.54159927 0.38949999 143 133 144 27235
0.81250000 19.54109955 0.39039999 143 133 144 27764
0.81250000 19.54010010 0.39140001 143 133 144 28789
0.81250000 19.54039955 0.39240000 143 133 144 28596
0.81250000 19.53930092 0.39430001 185 177 192 28403
0.81250000 19.53980064 0.39719999 185 177 192 28128
0.81239998 19.53800011 0.39820001 185 177 192 27846
0.81239998 19.53919983 0.39919999 185 177 192 27846
0.81239998 19.53849983 0.40009999 185 177 192 27317
0.81239998 19.53860092 0.40110001 167 163 178 24646
0.81239998 19.53800011 0.40210000 167 163 178 20617
0.81239998 19.53849983 0.40310001 167 163 178 14996
0.81239998 19.53820038 0.40410000 167 163 178 10042
0.81239998 19.53709984 0.40810001 167 163 178 2196
0.81230003 19.53540039 0.40900001 125 122 139 1885
0.81220001 19.53450012 0.41290000 125 122 139 1346
0.81220001 19.53319931 0.41880000 81 80 98 1182
0.81199998 19.52949905 0.43279999 66 64 85 975
0.81199998 19.52750015 0.43959999 78 76 98 1271
0.81180000 19.52479935 0.45050001 81 78 99 17600
0.81190002 19.52549934 0.45150000 81 78 99 22142
0.81180000 19.52429962 0.45240000 81 78 99 23807
0.81180000 19.52359962 0.45339999 81 78 99 25582
0.81180000 19.52300072 0.45719999 81 78 99 28471
0.81180000 19.52389908 0.45820001 137 134 151 27739
0.81180000 19.52350044 0.45919999 137 134 151 27207
0.81180000 19.52300072 0.46020001 137 134 151 27121
0.81169999 19.52199936 0.46309999 137 134 151 30064
0.81169999 19.52129936 0.46509999 137 134 151 30714
0.81169999 19.52079964 0.46610001 195 191 206 30389
0.81169999 19.52109909 0.46910000 195 191 206 28853
0.81169999 19.52029991 0.47009999 195 191 206 27907
0.81160003 19.51969910 0.47099999 195 191 206 28464
0.81160003 19.51899910 0.47200000 195 191 206 28849
0.81160003 19.51840019 0.47299999 195 191 206 28753
0.81160003 19.51790047 0.47690001 210 207 218 22485
0.81370002 19.54210091 0.38499999 143 133 144 30317
