//X Y Z R G B Intensity
0.77490002 19.51749992 0.48060000 213 213 223 21910
0.77710003 19.54680061 0.37670001 125 117 128 26564
0.77710003 19.54649925 0.37770000 125 117 128 28225
0.77700001 19.54570007 0.37869999 125 117 128 28599
0.77700001 19.54570007 0.37970001 125 117 128 28503
0.77710003 19.54640007 0.38080001 125 117 128 28414
0.77700001 19.54500008 0.38180000 125 117 128 28035
0.77700001 19.54599953 0.38280001 125 117 128 28135
0.77700001 19.54409981 0.38370001 125 117 128 28696
0.77700001 19.54409981 0.38470000 197 194 205 28314
0.77689999 19.54330063 0.38569999 197 194 205 27675
0.77700001 19.54420090 0.38670000 197 194 205 27853
0.77689999 19.54280090 0.38760000 197 194 205 27942
0.77679998 19.54089928 0.38850001 197 194 205 27760
0.77679998 19.54000092 0.38949999 197 194 205 27578
0.77689999 19.54260063 0.39050001 197 194 205 28596
0.77679998 19.54030037 0.39140001 197 194 205 28785
0.77689999 19.54140091 0.39240000 197 194 205 28982
0.77679998 19.54070091 0.39340001 218 218 230 29175
0.77679998 19.54039955 0.39440000 218 218 230 29378
0.77679998 19.54080009 0.39539999 218 218 230 28978
0.77689999 19.54100037 0.39640000 218 218 230 29175
0.77679998 19.53969955 0.39730000 218 218 230 29678
0.77679998 19.53890038 0.39829999 218 218 230 30200
0.77670002 19.53770065 0.39919999 218 218 230 30414
0.77679998 19.53989983 0.40030000 218 218 230 30742
0.77679998 19.53989983 0.40130001 211 213 226 29782
0.77679998 19.54019928 0.40230000 211 213 226 29475
0.77670002 19.53789902 0.40320000 211 213 226 28975
0.77679998 19.53910065 0.40419999 211 213 226 29471
0.77670002 19.53779984 0.40520000 211 213 226 28589
0.77670002 19.53709984 0.40619999 211 213 226 27842
0.77670002 19.53669930 0.40720001 211 213 226 26635
0.77660000 19.53540039 0.40810001 211 213 226 26882
0.77670002 19.53619957 0.40910000 210 216 228 26714
0.77670002 19.53660011 0.41010001 210 216 228 26885
0.77670002 19.53669930 0.41110000 210 216 228 26714
0.77670002 19.53759956 0.41209999 210 216 228 27489
0.77660000 19.53610039 0.41299999 210 216 228 27932
0.77660000 19.53590012 0.41400000 210 216 228 27753
0.77660000 19.53569984 0.41499999 210 216 228 26225
0.77660000 19.53520012 0.41600001 210 216 228 22096
0.77649999 19.53289986 0.41690001 177 185 198 16392
0.77649999 19.53179932 0.41790000 177 185 198 12192
0.77649999 19.53140068 0.41890001 177 185 198 8092
0.77649999 19.53330040 0.42100000 177 185 198 3457
0.77649999 19.53149986 0.42190000 177 185 198 2621
0.77649999 19.53310013 0.42399999 177 185 198 1757
0.77640003 19.52890015 0.42690000 137 144 160 1296
0.77649999 19.53330040 0.42899999 137 144 160 1521
0.77630001 19.52729988 0.43180001 137 144 160 1489
0.77640003 19.52939987 0.43480000 90 95 115 1882
0.77630001 19.52849960 0.43680000 90 95 115 3375
0.77620000 19.52569962 0.43770000 90 95 115 6367
0.77630001 19.52680016 0.43869999 90 95 115 11457
0.77640003 19.52969933 0.43979999 90 95 115 16807
0.77630001 19.52759933 0.44080001 90 95 115 20957
0.77630001 19.52740097 0.44180000 135 140 160 23417
0.77640003 19.52869987 0.44279999 135 140 160 25139
0.77630001 19.52610016 0.44369999 135 140 160 26128
0.77630001 19.52669907 0.44470000 135 140 160 27035
0.77630001 19.52709961 0.44569999 135 140 160 27471
0.77630001 19.52759933 0.44670001 135 140 160 27825
0.77630001 19.52619934 0.44760001 135 140 160 27646
0.77630001 19.52630043 0.44859999 135 140 160 28567
0.77620000 19.52350044 0.44949999 194 197 216 29046
0.77620000 19.52540016 0.45060000 194 197 216 29450
0.77620000 19.52510071 0.45150000 194 197 216 28471
0.77620000 19.52409935 0.45249999 194 197 216 28100
0.77620000 19.52379990 0.45339999 194 197 216 27375
0.77620000 19.52420044 0.45440000 194 197 216 27553
0.77620000 19.52400017 0.45539999 194 197 216 28564
0.77609998 19.52219963 0.45629999 194 197 216 28464
0.77620000 19.52370071 0.45739999 194 197 216 28189
0.77609998 19.52280045 0.45829999 214 217 232 29142
0.77609998 19.52269936 0.45930001 214 217 232 29142
0.77609998 19.52269936 0.46030000 214 217 232 29750
0.77600002 19.51959991 0.46120000 214 217 232 29042
0.77600002 19.52050018 0.46219999 214 217 232 29542
0.77609998 19.52120018 0.46329999 214 217 232 30385
0.77609998 19.52230072 0.46430001 214 217 232 30389
0.77609998 19.52219963 0.46529999 214 217 232 30603
0.77609998 19.52109909 0.46619999 208 210 223 30385
0.77600002 19.52009964 0.46720001 208 210 223 30060
0.77609998 19.52070045 0.46820000 208 210 223 29442
0.77609998 19.52099991 0.46919999 208 210 223 28092
0.77609998 19.52210045 0.47020000 208 210 223 27732
0.77600002 19.51880074 0.47110000 208 210 223 26771
0.77609998 19.52059937 0.47209999 208 210 223 25960
0.77600002 19.51980019 0.47310001 208 210 223 26689
0.77590001 19.51779938 0.47400001 213 213 223 27635
0.77600002 19.51849937 0.47499999 213 213 223 28367
0.77600002 19.51989937 0.47600001 213 213 223 29542
0.77590001 19.51790047 0.47700000 213 213 223 29039
0.77590001 19.51759911 0.47799999 213 213 223 29235
0.77600002 19.51869965 0.47900000 213 213 223 28367
0.77590001 19.51650047 0.47999999 213 213 223 25342
0.77600002 19.51950073 0.48100001 213 213 223 20542
0.77800000 19.54520035 0.37720001 125 117 128 27585
0.77810001 19.54710007 0.37830001 125 117 128 29285
0.77810001 19.54619980 0.37930000 125 117 128 29182
0.77800000 19.54509926 0.38020000 125 117 128 28792
0.77810001 19.54610062 0.38119999 125 117 128 28503
0.77800000 19.54479980 0.38220000 125 117 128 28985
0.77789998 19.54299927 0.38319999 125 117 128 28499
0.77789998 19.54310036 0.38409999 125 117 128 28499
0.77800000 19.54369926 0.38510001 197 194 205 28314
0.77789998 19.54159927 0.38609999 197 194 205 27764
0.77789998 19.54190063 0.38710001 197 194 205 28310
0.77789998 19.54129982 0.38800001 197 194 205 27939
0.77789998 19.54199982 0.38900000 197 194 205 27582
0.77780002 19.54039955 0.38999999 197 194 205 27317
0.77789998 19.54199982 0.39100000 197 194 205 28407
0.77789998 19.54199982 0.39199999 197 194 205 29382
0.77780002 19.54039955 0.39300001 218 218 230 30310
0.77789998 19.54120064 0.39399999 218 218 230 30096
0.77780002 19.53849983 0.39489999 218 218 230 29071
0.77780002 19.54050064 0.39600000 218 218 230 29378
0.77780002 19.53969955 0.39700001 218 218 230 29375
0.77780002 19.54030037 0.39800000 218 218 230 29992
0.77789998 19.54210091 0.39899999 218 218 230 29996
0.77770001 19.53809929 0.39989999 218 218 230 29778
0.77780002 19.53989983 0.40099999 211 213 226 29575
0.77780002 19.54019928 0.40189999 211 213 226 29889
0.77780002 19.53989983 0.40290001 211 213 226 30635
0.77780002 19.53870010 0.40390000 211 213 226 30853
0.77770001 19.53779984 0.40480000 211 213 226 29375
0.77770001 19.53809929 0.40580001 211 213 226 28025
0.77770001 19.53700066 0.40680000 211 213 226 26971
0.77759999 19.53580093 0.40770000 211 213 226 27664
0.77770001 19.53709984 0.40869999 211 213 226 28025
0.77759999 19.53520012 0.40970001 210 216 228 28682
0.77759999 19.53560066 0.41069999 210 216 228 28207
0.77759999 19.53569984 0.41170001 210 216 228 28585
0.77759999 19.53499985 0.41270000 210 216 228 29367
0.77759999 19.53580093 0.41370001 210 216 228 28778
0.77759999 19.53490067 0.41470000 210 216 228 27139
0.77759999 19.53380013 0.41569999 210 216 228 24639
0.77759999 19.53440094 0.41670001 210 216 228 21760
0.77759999 19.53369904 0.41760001 177 185 198 16810
0.77749997 19.53219986 0.41859999 177 185 198 12025
0.77749997 19.53160095 0.41960001 177 185 198 8092
0.77759999 19.53409958 0.42060000 177 185 198 5432
0.77749997 19.53249931 0.42260000 177 185 198 2660
0.77749997 19.53339958 0.42449999 177 185 198 1799
0.77749997 19.53219986 0.42649999 137 144 160 1392
0.77749997 19.53229904 0.42739999 137 144 160 1432
0.77749997 19.53160095 0.42940000 137 144 160 1507
0.77740002 19.52890015 0.43030000 137 144 160 1550
0.77740002 19.52960014 0.43130001 137 144 160 1453
0.77740002 19.52980042 0.43230000 137 144 160 1660
0.77749997 19.53179932 0.43329999 90 95 115 1871
0.77730000 19.52669907 0.43619999 90 95 115 4689
0.77740002 19.52939987 0.43830001 90 95 115 15275
0.77740002 19.52869987 0.43930000 90 95 115 21589
0.77740002 19.52899933 0.44029999 90 95 115 24700
0.77730000 19.52809906 0.44130000 135 140 160 25585
0.77730000 19.52820015 0.44229999 135 140 160 26292
0.77730000 19.52740097 0.44319999 135 140 160 26700
0.77730000 19.52709961 0.44420001 135 140 160 26785
0.77730000 19.52709961 0.44520000 135 140 160 27035
0.77730000 19.52709961 0.44620001 135 140 160 27739
0.77730000 19.52630043 0.44720000 135 140 160 28285
0.77719998 19.52560043 0.44810000 135 140 160 28567
0.77719998 19.52580070 0.44909999 135 140 160 28664
0.77730000 19.52639961 0.45010000 194 197 216 28860
0.77719998 19.52549934 0.45109999 194 197 216 27821
0.77719998 19.52490044 0.45210001 194 197 216 27821
0.77719998 19.52460098 0.45300001 194 197 216 27378
0.77710003 19.52230072 0.45400000 194 197 216 27732
0.77719998 19.52389908 0.45500001 194 197 216 27821
0.77710003 19.52230072 0.45600000 194 197 216 27817
0.77710003 19.52210045 0.45699999 194 197 216 27550
0.77719998 19.52379990 0.45800000 214 217 232 28189
0.77710003 19.52269936 0.45899999 214 217 232 28660
0.77700001 19.52029991 0.45989999 214 217 232 30167
0.77719998 19.52379990 0.46100000 214 217 232 29753
0.77700001 19.52050018 0.46190000 214 217 232 30275
0.77710003 19.52330017 0.46300000 214 217 232 30175
0.77700001 19.51950073 0.46390000 214 217 232 29342
0.77710003 19.52179909 0.46489999 214 217 232 30064
0.77700001 19.52009964 0.46590000 208 210 223 30167
0.77700001 19.51899910 0.46680000 208 210 223 29342
0.77700001 19.52050018 0.46779999 208 210 223 28753
0.77700001 19.52070045 0.46880001 208 210 223 28371
0.77700001 19.51950073 0.46970001 208 210 223 27546
0.77710003 19.52079964 0.47070000 208 210 223 27117
0.77700001 19.51840019 0.47160000 208 210 223 26771
0.77700001 19.51950073 0.47260001 208 210 223 26521
0.77689999 19.51659966 0.47360000 208 210 223 26603
0.77700001 19.51969910 0.47459999 213 213 223 27639
0.77689999 19.51679993 0.47560000 213 213 223 28746
0.77700001 19.51969910 0.47659999 213 213 223 29342
0.77689999 19.51749992 0.47760001 213 213 223 28846
0.77689999 19.51729965 0.47860000 213 213 223 29039
0.77689999 19.51659966 0.47960001 213 213 223 27900
0.77689999 19.51659966 0.48060000 213 213 223 24832
0.77910000 19.54800034 0.37670001 125 117 128 27592
0.77899998 19.54529953 0.37770000 125 117 128 28314
0.77899998 19.54689980 0.37869999 125 117 128 29485
0.77899998 19.54500008 0.37970001 125 117 128 29082
0.77899998 19.54719925 0.38080001 125 117 128 29589
0.77899998 19.54579926 0.38180000 125 117 128 28599
0.77890003 19.54479980 0.38270000 125 117 128 28696
0.77890003 19.54389954 0.38370001 125 117 128 28499
0.77890003 19.54319954 0.38470000 197 194 205 27942
0.77880001 19.54220009 0.38560000 197 194 205 27939
0.77890003 19.54249954 0.38659999 197 194 205 28789
0.77880001 19.54089928 0.38760000 197 194 205 28403
0.77869999 19.53980064 0.38850001 197 194 205 28307
0.77880001 19.54210091 0.38949999 197 194 205 27939
0.77880001 19.54120064 0.39050001 197 194 205 28028
0.77880001 19.54039955 0.39140001 197 194 205 28403
0.77880001 19.54059982 0.39240000 197 194 205 29475
0.77880001 19.54120064 0.39340001 218 218 230 29782
0.77880001 19.54229927 0.39440000 218 218 230 29478
0.77880001 19.54100037 0.39530000 218 218 230 28496
0.77869999 19.53930092 0.39629999 218 218 230 28307
0.77869999 19.53919983 0.39730000 218 218 230 28882
0.77880001 19.54080009 0.39829999 218 218 230 29475
0.77880001 19.54089928 0.39930001 218 218 230 28785
0.77869999 19.53890038 0.40030000 218 218 230 28025
0.77880001 19.54039955 0.40130001 211 213 226 28496
0.77880001 19.54030037 0.40230000 211 213 226 28978
0.77869999 19.53870010 0.40320000 211 213 226 29675
0.77869999 19.53759956 0.40419999 211 213 226 29071
0.77869999 19.53860092 0.40520000 211 213 226 28589
0.77859998 19.53709984 0.40619999 211 213 226 28025
0.77859998 19.53599930 0.40709999 211 213 226 28117
0.77859998 19.53700066 0.40810001 211 213 226 27842
0.77850002 19.53479958 0.40910000 210 216 228 28582
0.77850002 19.53420067 0.41010001 210 216 228 29264
0.77859998 19.53520012 0.41110000 210 216 228 28299
0.77859998 19.53649902 0.41209999 210 216 228 28971
0.77850002 19.53380013 0.41299999 210 216 228 28392
0.77850002 19.53319931 0.41400000 210 216 228 27657
0.77850002 19.53459930 0.41499999 210 216 228 27392
0.77850002 19.53339958 0.41600001 210 216 228 25828
0.77850002 19.53429985 0.41700000 177 185 198 22442
0.77850002 19.53369904 0.41800001 177 185 198 18435
0.77850002 19.53420067 0.41900000 177 185 198 14057
0.77840000 19.53109932 0.41990000 177 185 198 9953
0.77840000 19.53229904 0.42089999 177 185 198 6596
0.77850002 19.53319931 0.42190000 177 185 198 4207
0.77850002 19.53509903 0.42300001 177 185 198 3042
0.77850002 19.53389931 0.42399999 177 185 198 2307
0.77840000 19.53070068 0.42490000 177 185 198 1925
0.77850002 19.53450012 0.42699999 137 144 160 1557
0.77840000 19.53089905 0.42890000 137 144 160 1546
0.77829999 19.52779961 0.43180001 137 144 160 1739
0.77829999 19.52779961 0.43279999 137 144 160 1971
0.77829999 19.52899933 0.43380001 90 95 115 2507
0.77829999 19.52790070 0.43680000 90 95 115 12210
0.77829999 19.52919960 0.43779999 90 95 115 19264
0.77840000 19.53079987 0.43880001 90 95 115 24992
0.77829999 19.52840042 0.43979999 90 95 115 27300
0.77829999 19.52829933 0.44080001 90 95 115 27560
0.77819997 19.52680016 0.44180000 135 140 160 28103
0.77829999 19.52750015 0.44279999 135 140 160 27825
0.77829999 19.52809906 0.44380000 135 140 160 27475
0.77829999 19.52809906 0.44470000 135 140 160 28385
0.77819997 19.52580070 0.44569999 135 140 160 28382
0.77819997 19.52549934 0.44659999 135 140 160 29353
0.77819997 19.52630043 0.44760001 135 140 160 28764
0.77819997 19.52650070 0.44859999 135 140 160 28192
0.77810001 19.52420044 0.44949999 194 197 216 28378
0.77810001 19.52400017 0.45050001 194 197 216 28189
0.77810001 19.52300072 0.45150000 194 197 216 28467
0.77810001 19.52389908 0.45249999 194 197 216 27642
0.77810001 19.52319908 0.45339999 194 197 216 27467
0.77810001 19.52239990 0.45440000 194 197 216 27464
0.77810001 19.52389908 0.45539999 194 197 216 27642
0.77810001 19.52300072 0.45629999 194 197 216 28000
0.77810001 19.52359962 0.45730001 194 197 216 28189
0.77810001 19.52350044 0.45829999 214 217 232 28100
0.77810001 19.52300072 0.45930001 214 217 232 28564
0.77810001 19.52230072 0.46030000 214 217 232 28757
0.77810001 19.52249908 0.46129999 214 217 232 28853
0.77800000 19.52169991 0.46230000 214 217 232 28657
0.77800000 19.52079964 0.46320000 214 217 232 28657
0.77800000 19.52029991 0.46419999 214 217 232 29139
0.77800000 19.52079964 0.46520001 214 217 232 29542
0.77800000 19.52090073 0.46619999 208 210 223 29242
0.77800000 19.52070045 0.46720001 208 210 223 29646
0.77800000 19.52070045 0.46820000 208 210 223 28657
0.77800000 19.52059937 0.46919999 208 210 223 28946
0.77800000 19.52029991 0.47009999 208 210 223 27996
0.77800000 19.52140045 0.47110000 208 210 223 27203
0.77789998 19.51790047 0.47200000 208 210 223 26439
0.77789998 19.51910019 0.47299999 208 210 223 27200
0.77789998 19.51770020 0.47400001 213 213 223 27457
0.77789998 19.51930046 0.47499999 213 213 223 28371
0.77800000 19.51989937 0.47600001 213 213 223 28946
0.77789998 19.51770020 0.47700000 213 213 223 28942
0.77789998 19.51770020 0.47799999 213 213 223 29039
0.77780002 19.51689911 0.47900000 213 213 223 28089
0.77789998 19.51749992 0.47999999 213 213 223 25724
0.78009999 19.54739952 0.37529999 87 76 84 27328
0.78009999 19.54780006 0.37630001 87 76 84 27775
0.78009999 19.54660034 0.37729999 137 127 138 28603
0.77999997 19.54490089 0.37819999 137 127 138 29685
0.77999997 19.54630089 0.37920001 137 127 138 30107
0.77999997 19.54520035 0.38020000 137 127 138 29689
0.77999997 19.54430008 0.38119999 137 127 138 29582
0.78009999 19.54710007 0.38220000 137 127 138 29285
0.77990001 19.54220009 0.38310000 137 127 138 28789
0.77990001 19.54290009 0.38409999 137 127 138 28789
0.77990001 19.54140091 0.38510001 208 202 214 28885
0.77980000 19.54100037 0.38600001 208 202 214 28978
0.77990001 19.54260063 0.38699999 208 202 214 29582
0.77990001 19.54299927 0.38800001 208 202 214 29178
0.77990001 19.54120064 0.38900000 208 202 214 28496
0.77980000 19.54030037 0.38999999 208 202 214 28785
0.77990001 19.54150009 0.39100000 208 202 214 28982
0.77980000 19.54039955 0.39199999 208 202 214 29782
0.77980000 19.54010010 0.39300001 218 216 229 29275
0.77980000 19.53980064 0.39399999 218 216 229 28403
0.77969998 19.53759956 0.39489999 218 216 229 28121
0.77980000 19.53899956 0.39600000 218 216 229 27053
0.77980000 19.53980064 0.39700001 218 216 229 28214
0.77969998 19.53870010 0.39789999 218 216 229 27935
0.77980000 19.53969955 0.39899999 218 216 229 27846
0.77969998 19.53870010 0.39989999 218 216 229 26975
0.77980000 19.53930092 0.40090001 206 208 221 27053
0.77980000 19.53940010 0.40189999 206 208 221 28214
0.77980000 19.53910065 0.40290001 206 208 221 28492
0.77980000 19.53930092 0.40390000 206 208 221 28589
0.77969998 19.53630066 0.40480000 206 208 221 28396
0.77960002 19.53590012 0.40580001 206 208 221 27571
0.77960002 19.53450012 0.40669999 206 208 221 27046
0.77969998 19.53639984 0.40770000 206 208 221 27664
0.77960002 19.53540039 0.40869999 206 208 221 28299
0.77969998 19.53809929 0.40970001 221 227 241 28782
0.77960002 19.53549957 0.41069999 221 227 241 28875
0.77960002 19.53509903 0.41159999 221 227 241 29567
0.77969998 19.53649902 0.41270000 221 227 241 28489
0.77969998 19.53730011 0.41370001 221 227 241 28399
0.77960002 19.53490067 0.41460001 221 227 241 28117
0.77960002 19.53420067 0.41560000 221 227 241 27221
0.77960002 19.53569984 0.41670001 221 227 241 26467
0.77960002 19.53569984 0.41769999 209 216 232 24785
0.77950001 19.53350067 0.41859999 209 216 232 21275
0.77950001 19.53369904 0.41960001 209 216 232 17425
0.77950001 19.53310013 0.42060000 209 216 232 12967
0.77950001 19.53210068 0.42150000 209 216 232 8957
0.77939999 19.53140068 0.42250001 209 216 232 5992
0.77939999 19.53050041 0.42440000 209 216 232 2939
0.77939999 19.53009987 0.42640001 183 190 208 2064
0.77939999 19.52930069 0.42930001 183 190 208 1535
0.77939999 19.53059959 0.43130001 183 190 208 1789
0.77929997 19.52799988 0.43220001 183 190 208 1950
0.77929997 19.52820015 0.43320000 131 136 156 2392
0.77950001 19.53260040 0.43430001 131 136 156 4032
0.77929997 19.52689934 0.43520001 131 136 156 7432
0.77920002 19.52630043 0.43619999 131 136 156 13475
0.77929997 19.52779961 0.43720001 131 136 156 20164
0.77929997 19.52840042 0.43820000 131 136 156 24846
0.77929997 19.52880096 0.43920001 131 136 156 27300
0.77929997 19.52880096 0.44020000 131 136 156 28575
0.77939999 19.52960014 0.44130000 186 188 209 28767
0.77929997 19.52840042 0.44220001 186 188 209 29153
0.77929997 19.52869987 0.44319999 186 188 209 28671
0.77920002 19.52619934 0.44420001 186 188 209 29353
0.77929997 19.52700043 0.44520000 186 188 209 28571
0.77920002 19.52569962 0.44610000 186 188 209 29353
0.77920002 19.52549934 0.44710001 186 188 209 28760
0.77920002 19.52420044 0.44810000 186 188 209 28003
0.77920002 19.52589989 0.44909999 186 188 209 27378
0.77910000 19.52269936 0.44999999 218 219 239 27910
0.77920002 19.52400017 0.45100001 218 219 239 27910
0.77910000 19.52339935 0.45199999 218 219 239 27735
0.77920002 19.52519989 0.45300001 218 219 239 27378
0.77920002 19.52510071 0.45400000 218 219 239 27378
0.77920002 19.52389908 0.45490000 218 219 239 28189
0.77920002 19.52359962 0.45590001 218 219 239 28853
0.77920002 19.52479935 0.45699999 218 219 239 29146
0.77910000 19.52350044 0.45789999 211 212 230 29046
0.77920002 19.52420044 0.45899999 211 212 230 27910
0.77910000 19.52120018 0.45989999 211 212 230 27203
0.77899998 19.51980019 0.46090001 211 212 230 27200
0.77910000 19.52199936 0.46190000 211 212 230 27289
0.77899998 19.52039909 0.46290001 211 212 230 27464
0.77910000 19.52190018 0.46390000 211 212 230 28464
0.77899998 19.52099991 0.46480000 211 212 230 29042
0.77899998 19.52070045 0.46579999 216 215 229 29750
0.77910000 19.52210045 0.46680000 216 215 229 30603
0.77890003 19.51790047 0.46770000 216 215 229 30378
0.77910000 19.52120018 0.46869999 216 215 229 29142
0.77899998 19.51980019 0.46970001 216 215 229 28849
0.77899998 19.52009964 0.47070000 216 215 229 27460
0.77899998 19.51899910 0.47160000 216 215 229 26200
0.77890003 19.51829910 0.47260001 216 215 229 26357
0.77890003 19.51810074 0.47360000 216 215 229 27021
0.77899998 19.51860046 0.47459999 227 227 237 27903
0.77890003 19.51720047 0.47560000 227 227 237 28746
0.77890003 19.51790047 0.47659999 227 227 237 28653
0.77899998 19.51930046 0.47760001 227 227 237 28653
0.77890003 19.51700020 0.47850001 227 227 237 27992
0.77899998 19.51899910 0.47960001 227 227 237 26607
0.77899998 19.51899910 0.48060000 227 227 237 24407
0.78109998 19.54710007 0.37670001 137 127 138 28135
0.78100002 19.54509926 0.37760001 137 127 138 28225
0.78100002 19.54590034 0.37869999 137 127 138 29385
0.78100002 19.54610062 0.37970001 137 127 138 29485
0.78100002 19.54479980 0.38069999 137 127 138 30103
0.78090000 19.54290009 0.38159999 137 127 138 30100
0.78100002 19.54520035 0.38270000 137 127 138 30975
0.78100002 19.54490089 0.38370001 137 127 138 30428
0.78090000 19.54319954 0.38460001 208 202 214 29478
0.78090000 19.54249954 0.38560000 208 202 214 29278
0.78079998 19.54159927 0.38659999 208 202 214 28789
0.78090000 19.54330063 0.38760000 208 202 214 29685
0.78090000 19.54220009 0.38850001 208 202 214 29382
0.78090000 19.54210091 0.38949999 208 202 214 29175
0.78079998 19.54050064 0.39039999 208 202 214 29378
0.78090000 19.54330063 0.39150000 208 202 214 29996
0.78070003 19.53890038 0.39230001 208 202 214 30092
0.78070003 19.53930092 0.39330000 218 216 229 29678
0.78070003 19.53879929 0.39430001 218 216 229 28685
0.78070003 19.53829956 0.39530000 218 216 229 27142
0.78070003 19.53789902 0.39620000 218 216 229 27489
0.78070003 19.53759956 0.39719999 218 216 229 27842
0.78070003 19.53930092 0.39829999 218 216 229 26717
0.78070003 19.53930092 0.39930001 218 216 229 26475
0.78070003 19.53879929 0.40020001 218 216 229 26307
0.78070003 19.53870010 0.40120000 206 208 221 26803
0.78070003 19.53940010 0.40220001 206 208 221 28978
0.78070003 19.53820038 0.40320000 206 208 221 29271
0.78070003 19.53720093 0.40419999 206 208 221 28878
0.78070003 19.53800011 0.40520000 206 208 221 28025
0.78070003 19.53849983 0.40619999 206 208 221 27492
0.78070003 19.53730011 0.40709999 206 208 221 26885
0.78060001 19.53630066 0.40810001 206 208 221 27839
0.78060001 19.53599930 0.40910000 221 227 241 27664
0.78060001 19.53689957 0.41010001 221 227 241 27842
0.78060001 19.53509903 0.41100001 221 227 241 28582
0.78060001 19.53540039 0.41200000 221 227 241 29067
0.78060001 19.53680038 0.41299999 221 227 241 29467
0.78060001 19.53479958 0.41400000 221 227 241 29464
0.78060001 19.53689957 0.41499999 221 227 241 28585
0.78060001 19.53709984 0.41600001 221 227 241 27932
0.78049999 19.53420067 0.41690001 209 216 232 26382
0.78049999 19.53369904 0.41790000 209 216 232 25217
0.78049999 19.53429985 0.41890001 209 216 232 22746
0.78049999 19.53350067 0.41990000 209 216 232 19803
0.78049999 19.53389931 0.42089999 209 216 232 15850
0.78049999 19.53450012 0.42190000 209 216 232 11339
0.78039998 19.53120041 0.42289999 209 216 232 7700
0.78030002 19.52969933 0.42379999 209 216 232 5139
0.78039998 19.53170013 0.42989999 183 190 208 1842
0.78039998 19.52969933 0.43180001 183 190 208 2228
0.78020000 19.52669907 0.43370000 131 136 156 6360
0.78030002 19.52809906 0.43480000 131 136 156 10889
0.78030002 19.52880096 0.43579999 131 136 156 17782
0.78039998 19.52980042 0.43680000 131 136 156 22982
0.78030002 19.52899933 0.43770000 131 136 156 25974
0.78039998 19.52960014 0.43869999 131 136 156 27478
0.78030002 19.52790070 0.43970001 131 136 156 28571
0.78030002 19.52849960 0.44069999 131 136 156 28864
0.78039998 19.52949905 0.44180000 186 188 209 29257
0.78030002 19.52860069 0.44270000 186 188 209 29660
0.78030002 19.52740097 0.44369999 186 188 209 29553
0.78020000 19.52680016 0.44470000 186 188 209 29553
0.78030002 19.52720070 0.44569999 186 188 209 28860
0.78020000 19.52460098 0.44659999 186 188 209 28003
0.78020000 19.52490044 0.44760001 186 188 209 27292
0.78020000 19.52429962 0.44850001 186 188 209 27207
0.78009999 19.52319908 0.44949999 218 219 239 28096
0.78020000 19.52479935 0.45050001 218 219 239 27821
0.78009999 19.52370071 0.45140001 218 219 239 27121
0.78009999 19.52239990 0.45240000 218 219 239 27375
0.78009999 19.52379990 0.45339999 218 219 239 27642
0.78009999 19.52379990 0.45440000 218 219 239 28564
0.78009999 19.52370071 0.45530000 218 219 239 29753
0.78020000 19.52499962 0.45640001 218 219 239 30610
0.78020000 19.52540016 0.45739999 218 219 239 29653
0.78009999 19.52420044 0.45829999 211 212 230 28857
0.77999997 19.52140045 0.45930001 211 212 230 27817
0.77999997 19.52109909 0.46020001 211 212 230 26946
0.78009999 19.52179909 0.46129999 211 212 230 27289
0.77999997 19.52120018 0.46219999 211 212 230 28278
0.77999997 19.52059937 0.46320000 211 212 230 28275
0.77999997 19.52090073 0.46419999 211 212 230 29042
0.77990001 19.51910019 0.46509999 211 212 230 29853
0.77999997 19.52079964 0.46619999 216 215 229 30710
0.77999997 19.52029991 0.46709999 216 215 229 30932
0.78009999 19.52260017 0.46820000 216 215 229 30389
0.77990001 19.51749992 0.46900001 216 215 229 28649
0.77999997 19.51989937 0.47009999 216 215 229 26946
0.77999997 19.52059937 0.47110000 216 215 229 26042
0.77990001 19.51709938 0.47200000 216 215 229 26439
0.77999997 19.52070045 0.47299999 216 215 229 26042
0.77990001 19.51749992 0.47400001 227 227 237 26939
0.77990001 19.51779938 0.47499999 227 227 237 27457
0.77990001 19.51840019 0.47600001 227 227 237 27635
0.77990001 19.51749992 0.47690001 227 227 237 28178
0.77980000 19.51659966 0.47790000 227 227 237 28178
0.77990001 19.51740074 0.47889999 227 227 237 28749
0.77990001 19.51889992 0.48100001 227 227 237 22782
0.78210002 19.54820061 0.37619999 87 76 84 26989
0.78189999 19.54389954 0.37720001 137 127 138 27853
0.78200001 19.54509926 0.37819999 137 127 138 28314
0.78210002 19.54759979 0.37920001 137 127 138 28603
0.78200001 19.54450035 0.38020000 137 127 138 28599
0.78200001 19.54520035 0.38119999 137 127 138 29789
0.78189999 19.54360008 0.38209999 137 127 138 30207
0.78200001 19.54570007 0.38310000 137 127 138 30321
0.78189999 19.54380035 0.38409999 137 127 138 29482
0.78189999 19.54400063 0.38510001 208 202 214 29385
0.78200001 19.54450035 0.38609999 208 202 214 28985
0.78189999 19.54199982 0.38699999 208 202 214 29578
0.78189999 19.54179955 0.38800001 208 202 214 29996
0.78179997 19.54140091 0.38900000 208 202 214 29782
0.78179997 19.54150009 0.38999999 208 202 214 30528
0.78179997 19.54030037 0.39089999 208 202 214 31421
0.78179997 19.54089928 0.39190000 208 202 214 30857
0.78179997 19.54100037 0.39289999 218 216 229 29782
0.78179997 19.53980064 0.39390001 218 216 229 28214
0.78170002 19.53899956 0.39489999 218 216 229 26717
0.78170002 19.53890038 0.39590001 218 216 229 26639
0.78179997 19.54039955 0.39690000 218 216 229 26071
0.78170002 19.53879929 0.39789999 218 216 229 26150
0.78170002 19.53879929 0.39890000 218 216 229 25910
0.78179997 19.53969955 0.39989999 218 216 229 27317
0.78170002 19.53870010 0.40090001 206 208 221 28589
0.78170002 19.53840065 0.40180001 206 208 221 29675
0.78170002 19.53919983 0.40279999 206 208 221 30310
0.78170002 19.53759956 0.40380001 206 208 221 29675
0.78170002 19.53809929 0.40480000 206 208 221 28878
0.78170002 19.53820038 0.40580001 206 208 221 27667
0.78170002 19.53720093 0.40669999 206 208 221 27575
0.78160000 19.53660011 0.40770000 206 208 221 26635
0.78160000 19.53669930 0.40869999 206 208 221 26971
0.78160000 19.53520012 0.40970001 221 227 241 27046
0.78160000 19.53700066 0.41069999 221 227 241 27396
0.78149998 19.53409958 0.41159999 221 227 241 28775
0.78160000 19.53529930 0.41260001 221 227 241 28485
0.78160000 19.53590012 0.41370001 221 227 241 29775
0.78160000 19.53680038 0.41470000 221 227 241 28975
0.78160000 19.53540039 0.41560000 221 227 241 28117
0.78160000 19.53509903 0.41659999 221 227 241 26710
0.78160000 19.53509903 0.41760001 209 216 232 25000
0.78149998 19.53429985 0.41859999 209 216 232 24639
0.78160000 19.53560066 0.41960001 209 216 232 23821
0.78149998 19.53359985 0.42060000 209 216 232 21707
0.78149998 19.53339958 0.42160001 209 216 232 17500
0.78149998 19.53269958 0.42250001 209 216 232 12775
0.78140002 19.53179932 0.42350000 209 216 232 8667
0.78140002 19.53109932 0.42449999 209 216 232 5753
0.78149998 19.53260040 0.42550001 183 190 208 4157
0.78130001 19.52890015 0.42629999 183 190 208 2807
0.78149998 19.53260040 0.42739999 183 190 208 2296
0.78140002 19.53170013 0.42829999 183 190 208 2067
0.78130001 19.52880096 0.42930001 183 190 208 1950
0.78130001 19.52880096 0.43020001 183 190 208 2050
0.78130001 19.52880096 0.43120000 183 190 208 2467
0.78130001 19.52750015 0.43320000 131 136 156 7757
0.78130001 19.52809906 0.43419999 131 136 156 12885
0.78140002 19.53039932 0.43520001 131 136 156 19571
0.78130001 19.52740097 0.43619999 131 136 156 24628
0.78130001 19.52740097 0.43720001 131 136 156 27739
0.78130001 19.52790070 0.43820000 131 136 156 27917
0.78130001 19.52799988 0.43920001 131 136 156 28475
0.78130001 19.52860069 0.44020000 131 136 156 28960
0.78130001 19.52750015 0.44119999 186 188 209 29553
0.78130001 19.52729988 0.44220001 186 188 209 29553
0.78109998 19.52440071 0.44310001 186 188 209 30067
0.78130001 19.52849960 0.44420001 186 188 209 30507
0.78119999 19.52580070 0.44510001 186 188 209 28471
0.78119999 19.52580070 0.44610000 186 188 209 28103
0.78119999 19.52470016 0.44710001 186 188 209 28282
0.78119999 19.52529907 0.44810000 186 188 209 28378
0.78119999 19.52529907 0.44909999 186 188 209 28664
0.78119999 19.52479935 0.44999999 218 219 239 28760
0.78109998 19.52429962 0.45100001 218 219 239 27735
0.78119999 19.52479935 0.45199999 218 219 239 27553
0.78119999 19.52470016 0.45300001 218 219 239 28003
0.78109998 19.52460098 0.45400000 218 219 239 29049
0.78109998 19.52409935 0.45500001 218 219 239 28953
0.78109998 19.52289963 0.45590001 218 219 239 29650
0.78109998 19.52389908 0.45699999 218 219 239 30282
0.78100002 19.52169991 0.45789999 211 212 230 28853
0.78100002 19.52090073 0.45890000 211 212 230 28371
0.78100002 19.52079964 0.45989999 211 212 230 28371
0.78100002 19.52059937 0.46090001 211 212 230 27907
0.78100002 19.52120018 0.46190000 211 212 230 27732
0.78090000 19.51950073 0.46290001 211 212 230 27996
0.78100002 19.52129936 0.46390000 211 212 230 28753
0.78090000 19.51810074 0.46480000 211 212 230 30489
0.78100002 19.52160072 0.46590000 216 215 229 31160
0.78100002 19.52039909 0.46680000 216 215 229 31971
0.78100002 19.52109909 0.46779999 216 215 229 31160
0.78100002 19.52039909 0.46869999 216 215 229 29542
0.78090000 19.51799965 0.46970001 216 215 229 28182
0.78100002 19.52190018 0.47070000 216 215 229 26692
0.78090000 19.51930046 0.47160000 216 215 229 26521
0.78100002 19.51989937 0.47260001 216 215 229 26039
0.78090000 19.51869965 0.47360000 216 215 229 26857
0.78090000 19.51889992 0.47459999 227 227 237 27114
0.78079998 19.51709938 0.47549999 227 227 237 27725
0.78090000 19.51799965 0.47650000 227 227 237 28367
0.78090000 19.51849937 0.47760001 227 227 237 29439
0.78090000 19.51779938 0.47850001 227 227 237 29239
0.78079998 19.51700020 0.47950000 227 227 237 28089
0.78090000 19.51819992 0.48060000 227 227 237 25646
0.78090000 19.51899910 0.48159999 227 227 237 21964
0.78310001 19.54800034 0.37570000 87 76 84 27328
0.78310001 19.54820061 0.37680000 137 127 138 27860
0.78299999 19.54599953 0.37770000 137 127 138 27678
0.78299999 19.54520035 0.37869999 137 127 138 27585
0.78299999 19.54560089 0.37970001 137 127 138 27678
0.78289998 19.54350090 0.38069999 137 127 138 28035
0.78299999 19.54470062 0.38170001 137 127 138 28410
0.78289998 19.54290009 0.38270000 137 127 138 28221
0.78289998 19.54260063 0.38360000 137 127 138 28221
0.78289998 19.54269981 0.38460001 208 202 214 27582
0.78299999 19.54430008 0.38560000 208 202 214 28132
0.78289998 19.54319954 0.38659999 208 202 214 28314
0.78280002 19.54109955 0.38749999 208 202 214 28217
0.78289998 19.54249954 0.38850001 208 202 214 28407
0.78280002 19.54039955 0.38940001 208 202 214 30203
0.78280002 19.54059982 0.39039999 208 202 214 30857
0.78289998 19.54170036 0.39140001 208 202 214 31196
0.78280002 19.54109955 0.39240000 208 202 214 30096
0.78280002 19.54080009 0.39330000 218 216 229 28407
0.78270000 19.53820038 0.39430001 218 216 229 27228
0.78270000 19.53770065 0.39520001 218 216 229 26471
0.78270000 19.53890038 0.39629999 218 216 229 25910
0.78270000 19.53849983 0.39719999 218 216 229 25753
0.78280002 19.54019928 0.39829999 218 216 229 26639
0.78270000 19.53870010 0.39919999 218 216 229 27578
0.78280002 19.53930092 0.40020001 218 216 229 29075
0.78280002 19.54080009 0.40120000 206 208 221 29578
0.78280002 19.53930092 0.40220001 206 208 221 30310
0.78270000 19.53739929 0.40320000 206 208 221 29885
0.78270000 19.53770065 0.40410000 206 208 221 28589
0.78270000 19.53689957 0.40509999 206 208 221 27664
0.78259999 19.53490067 0.40610000 206 208 221 27225
0.78270000 19.53739929 0.40709999 206 208 221 26146
0.78259999 19.53459930 0.40799999 206 208 221 26300
0.78259999 19.53529930 0.40900001 221 227 241 26221
0.78270000 19.53680038 0.41000000 221 227 241 26800
0.78259999 19.53520012 0.41100001 221 227 241 27660
0.78259999 19.53499985 0.41200000 221 227 241 28485
0.78259999 19.53520012 0.41299999 221 227 241 28485
0.78259999 19.53619957 0.41400000 221 227 241 28682
0.78270000 19.53669930 0.41499999 221 227 241 27664
0.78259999 19.53409958 0.41589999 221 227 241 26710
0.78259999 19.53499985 0.41690001 209 216 232 25750
0.78250003 19.53280067 0.41790000 209 216 232 25746
0.78250003 19.53389931 0.41890001 209 216 232 25828
0.78250003 19.53310013 0.41990000 209 216 232 25439
0.78259999 19.53429985 0.42089999 209 216 232 22385
0.78250003 19.53310013 0.42190000 209 216 232 18800
0.78250003 19.53269958 0.42289999 209 216 232 13982
0.78250003 19.53229904 0.42390001 209 216 232 9589
0.78250003 19.53190041 0.42490000 209 216 232 6342
0.78240001 19.52949905 0.42590001 183 190 208 4025
0.78250003 19.53289986 0.42690000 183 190 208 2985
0.78230000 19.52880096 0.42780000 183 190 208 2478
0.78240001 19.53149986 0.42890000 183 190 208 2410
0.78230000 19.52880096 0.43079999 183 190 208 4389
0.78240001 19.53030014 0.43180001 183 190 208 7710
0.78230000 19.52750015 0.43279999 183 190 208 12225
0.78240001 19.53050041 0.43380001 131 136 156 18121
0.78230000 19.52880096 0.43480000 131 136 156 22857
0.78230000 19.52729988 0.43570000 131 136 156 25817
0.78240001 19.53039932 0.43680000 131 136 156 27217
0.78230000 19.52860069 0.43770000 131 136 156 27475
0.78230000 19.52899933 0.43869999 131 136 156 27560
0.78230000 19.52680016 0.43970001 131 136 156 27917
0.78230000 19.52779961 0.44069999 131 136 156 28764
0.78230000 19.52759933 0.44180000 186 188 209 28475
0.78219998 19.52630043 0.44270000 186 188 209 29149
0.78230000 19.52689934 0.44369999 186 188 209 29053
0.78219998 19.52619934 0.44470000 186 188 209 28764
0.78219998 19.52470016 0.44560000 186 188 209 29049
0.78230000 19.52689934 0.44670001 186 188 209 28667
0.78219998 19.52519989 0.44760001 186 188 209 28192
0.78230000 19.52659988 0.44859999 186 188 209 28764
0.78219998 19.52619934 0.44949999 218 219 239 28764
0.78230000 19.52720070 0.45050001 218 219 239 29253
0.78210002 19.52260017 0.45140001 218 219 239 28949
0.78219998 19.52389908 0.45240000 218 219 239 30067
0.78219998 19.52479935 0.45339999 218 219 239 30067
0.78219998 19.52409935 0.45440000 218 219 239 29146
0.78210002 19.52199936 0.45530000 218 219 239 28464
0.78219998 19.52409935 0.45629999 218 219 239 28467
0.78210002 19.52149963 0.45730001 218 219 239 28949
0.78210002 19.52190018 0.45829999 211 212 230 28278
0.78200001 19.52129936 0.45919999 211 212 230 27907
0.78200001 19.51980019 0.46020001 211 212 230 28092
0.78200001 19.52109909 0.46120000 211 212 230 27996
0.78210002 19.52199936 0.46219999 211 212 230 28096
0.78200001 19.52079964 0.46320000 211 212 230 28275
0.78200001 19.52059937 0.46419999 211 212 230 28464
0.78200001 19.52129936 0.46520001 211 212 230 30278
0.78200001 19.52059937 0.46619999 216 215 229 31046
0.78200001 19.51959991 0.46709999 216 215 229 31157
0.78200001 19.52090073 0.46810001 216 215 229 30603
0.78200001 19.51919937 0.46910000 216 215 229 29139
0.78200001 19.51969910 0.47009999 216 215 229 28753
0.78189999 19.51860046 0.47099999 216 215 229 26607
0.78189999 19.51700020 0.47200000 216 215 229 26603
0.78189999 19.51860046 0.47299999 216 215 229 26685
0.78189999 19.51849937 0.47400001 227 227 237 27546
0.78189999 19.51670074 0.47490001 227 227 237 27542
0.78189999 19.51770020 0.47589999 227 227 237 28367
0.78179997 19.51589966 0.47690001 227 227 237 29950
0.78189999 19.51709938 0.47790000 227 227 237 30053
0.78179997 19.51580048 0.47889999 227 227 237 29950
0.78189999 19.51679993 0.47990000 227 227 237 28746
0.78189999 19.51810074 0.48100001 227 227 237 26196
0.78189999 19.51860046 0.48199999 203 202 208 22425
0.78410000 19.54890060 0.37529999 87 76 84 28510
0.78410000 19.54840088 0.37619999 87 76 84 27950
0.78399998 19.54640007 0.37720001 137 127 138 28228
0.78399998 19.54669952 0.37819999 137 127 138 27682
0.78390002 19.54479980 0.37920001 137 127 138 27678
0.78390002 19.54260063 0.38010001 137 127 138 27942
0.78399998 19.54630089 0.38119999 137 127 138 27682
0.78390002 19.54430008 0.38209999 137 127 138 27153
0.78390002 19.54360008 0.38310000 137 127 138 26725
0.78390002 19.54389954 0.38409999 137 127 138 26810
0.78380001 19.54199982 0.38499999 208 202 214 27850
0.78390002 19.54260063 0.38600001 208 202 214 28032
0.78380001 19.54170036 0.38699999 208 202 214 28032
0.78380001 19.54059982 0.38800001 208 202 214 28496
0.78380001 19.54170036 0.38900000 208 202 214 30096
0.78380001 19.54050064 0.38990000 208 202 214 31421
0.78380001 19.54170036 0.39100000 208 202 214 30860
0.78380001 19.54190063 0.39199999 208 202 214 30639
0.78380001 19.54109955 0.39300001 218 216 229 28885
0.78369999 19.53890038 0.39390001 218 216 229 28025
0.78380001 19.54019928 0.39500001 218 216 229 27578
0.78369999 19.53890038 0.39600000 218 216 229 26471
0.78369999 19.53949928 0.39700001 218 216 229 26071
0.78359997 19.53709984 0.39789999 218 216 229 26385
0.78369999 19.53969955 0.39890000 218 216 229 27760
0.78359997 19.53750038 0.39989999 218 216 229 28975
0.78380001 19.54080009 0.40090001 206 208 221 29992
0.78369999 19.53989983 0.40189999 206 208 221 29475
0.78369999 19.53980064 0.40279999 206 208 221 29475
0.78369999 19.53849983 0.40380001 206 208 221 28589
0.78369999 19.53860092 0.40480000 206 208 221 27314
0.78369999 19.53829956 0.40580001 206 208 221 27053
0.78369999 19.53779984 0.40669999 206 208 221 26385
0.78359997 19.53649902 0.40770000 206 208 221 26303
0.78359997 19.53660011 0.40869999 206 208 221 26885
0.78359997 19.53549957 0.40970001 221 227 241 26382
0.78359997 19.53590012 0.41069999 221 227 241 26967
0.78359997 19.53660011 0.41170001 221 227 241 26714
0.78359997 19.53529930 0.41270000 221 227 241 27928
0.78359997 19.53540039 0.41370001 221 227 241 27839
0.78350002 19.53479958 0.41470000 221 227 241 27225
0.78359997 19.53509903 0.41569999 221 227 241 26546
0.78350002 19.53459930 0.41670001 221 227 241 26882
0.78350002 19.53400040 0.41760001 209 216 232 26796
0.78350002 19.53369904 0.41859999 209 216 232 27482
0.78359997 19.53549957 0.41960001 209 216 232 26967
0.78350002 19.53420067 0.42060000 209 216 232 25521
0.78340000 19.53249931 0.42150000 209 216 232 22742
0.78340000 19.53240013 0.42250001 209 216 232 19575
0.78340000 19.53089905 0.42340001 209 216 232 15335
0.78350002 19.53289986 0.42449999 209 216 232 10767
0.78340000 19.53079987 0.42539999 183 190 208 7632
0.78340000 19.53109932 0.42640001 183 190 208 5214
0.78340000 19.53059959 0.42730001 183 190 208 3803
0.78350002 19.53260040 0.42829999 183 190 208 3189
0.78329998 19.52829933 0.43020001 183 190 208 4753
0.78329998 19.52910042 0.43120000 183 190 208 8285
0.78329998 19.52899933 0.43220001 183 190 208 13207
0.78329998 19.52829933 0.43320000 131 136 156 18550
0.78329998 19.52840042 0.43419999 131 136 156 21975
0.78329998 19.52840042 0.43520001 131 136 156 24846
0.78329998 19.52869987 0.43619999 131 136 156 26535
0.78329998 19.52960014 0.43730000 131 136 156 26875
0.78329998 19.52799988 0.43820000 131 136 156 26785
0.78329998 19.52969933 0.43930000 131 136 156 27132
0.78329998 19.52869987 0.44020000 131 136 156 27917
0.78329998 19.52930069 0.44119999 131 136 156 28671
0.78329998 19.52740097 0.44220001 186 188 209 28860
0.78320003 19.52650070 0.44310001 186 188 209 28764
0.78320003 19.52519989 0.44409999 186 188 209 28567
0.78320003 19.52619934 0.44510001 186 188 209 28567
0.78329998 19.52779961 0.44610000 186 188 209 28385
0.78320003 19.52700043 0.44710001 186 188 209 28196
0.78320003 19.52589989 0.44810000 186 188 209 28285
0.78310001 19.52440071 0.44900000 186 188 209 28857
0.78320003 19.52470016 0.44999999 218 219 239 29049
0.78310001 19.52379990 0.45100001 218 219 239 29753
0.78320003 19.52549934 0.45199999 218 219 239 30178
0.78310001 19.52429962 0.45300001 218 219 239 30282
0.78320003 19.52499962 0.45400000 218 219 239 29146
0.78310001 19.52370071 0.45500001 218 219 239 27910
0.78310001 19.52339935 0.45600000 218 219 239 28378
0.78310001 19.52280045 0.45699999 218 219 239 28757
0.78299999 19.52179909 0.45789999 211 212 230 28375
0.78310001 19.52249908 0.45899999 211 212 230 28000
0.78310001 19.52219963 0.46000001 211 212 230 27732
0.78310001 19.52300072 0.46100000 211 212 230 27735
0.78299999 19.52199936 0.46190000 211 212 230 28185
0.78299999 19.52050018 0.46290001 211 212 230 27996
0.78310001 19.52289963 0.46390000 211 212 230 28564
0.78299999 19.52190018 0.46489999 211 212 230 29546
0.78299999 19.52179909 0.46590000 216 215 229 30603
0.78299999 19.52020073 0.46680000 216 215 229 30275
0.78299999 19.52039909 0.46779999 216 215 229 30060
0.78299999 19.51989937 0.46869999 216 215 229 29857
0.78299999 19.52020073 0.46970001 216 215 229 28657
0.78289998 19.51899910 0.47070000 216 215 229 27546
0.78289998 19.51779938 0.47160000 216 215 229 27196
0.78280002 19.51689911 0.47260001 216 215 229 28178
0.78280002 19.51689911 0.47360000 216 215 229 28457
0.78289998 19.51849937 0.47459999 227 227 237 29239
0.78280002 19.51709938 0.47560000 227 227 237 29850
0.78289998 19.51899910 0.47659999 227 227 237 30600
0.78289998 19.51810074 0.47760001 227 227 237 30382
0.78289998 19.51770020 0.47860000 227 227 237 29239
0.78280002 19.51630020 0.47950000 227 227 237 28649
0.78289998 19.51869965 0.48060000 227 227 237 27200
0.78289998 19.51869965 0.48159999 227 227 237 23282
0.78509998 19.54579926 0.37570000 87 76 84 28699
0.78520000 19.54840088 0.37680000 137 127 138 29392
0.78500003 19.54479980 0.37770000 137 127 138 28314
0.78509998 19.54610062 0.37880000 137 127 138 28135
0.78509998 19.54520035 0.37970001 137 127 138 27946
0.78500003 19.54360008 0.38069999 137 127 138 27585
0.78500003 19.54310036 0.38170001 137 127 138 27060
0.78500003 19.54369926 0.38270000 137 127 138 26896
0.78500003 19.54280090 0.38360000 137 127 138 26978
0.78490001 19.54159927 0.38460001 208 202 214 27939
0.78509998 19.54590034 0.38560000 208 202 214 28699
0.78500003 19.54319954 0.38659999 208 202 214 28889
0.78500003 19.54280090 0.38749999 208 202 214 28982
0.78500003 19.54269981 0.38850001 208 202 214 29896
0.78490001 19.54159927 0.38949999 208 202 214 30639
0.78500003 19.54269981 0.39050001 208 202 214 30314
0.78490001 19.54080009 0.39140001 208 202 214 30310
0.78490001 19.54080009 0.39240000 208 202 214 29378
0.78479999 19.53949928 0.39330000 218 216 229 28785
0.78490001 19.54039955 0.39430001 218 216 229 27939
0.78479999 19.53930092 0.39530000 218 216 229 27846
0.78479999 19.53919983 0.39629999 218 216 229 26803
0.78479999 19.53890038 0.39730000 218 216 229 26389
0.78479999 19.53949928 0.39829999 218 216 229 27492
0.78479999 19.53829956 0.39919999 218 216 229 28589
0.78479999 19.53890038 0.40020001 218 216 229 28214
0.78479999 19.53870010 0.40120000 206 208 221 28403
0.78479999 19.53750038 0.40220001 206 208 221 28210
0.78469998 19.53569984 0.40310001 206 208 221 27932
0.78479999 19.53800011 0.40419999 206 208 221 27489
0.78479999 19.53739929 0.40509999 206 208 221 27842
0.78479999 19.53739929 0.40610000 206 208 221 27842
0.78479999 19.53750038 0.40709999 206 208 221 27842
0.78469998 19.53669930 0.40810001 206 208 221 27489
0.78469998 19.53680038 0.40900001 221 227 241 27842
0.78469998 19.53720093 0.41000000 221 227 241 27932
0.78460002 19.53470039 0.41100001 221 227 241 26967
0.78469998 19.53569984 0.41200000 221 227 241 26967
0.78469998 19.53520012 0.41299999 221 227 241 26796
0.78469998 19.53660011 0.41400000 221 227 241 27575
0.78469998 19.53509903 0.41499999 221 227 241 27396
0.78460002 19.53450012 0.41600001 221 227 241 27660
0.78469998 19.53490067 0.41700000 209 216 232 29067
0.78469998 19.53490067 0.41800001 209 216 232 28778
0.78460002 19.53409958 0.41890001 209 216 232 28396
0.78450000 19.53199959 0.41990000 209 216 232 26464
0.78460002 19.53400040 0.42089999 209 216 232 25221
0.78460002 19.53409958 0.42190000 209 216 232 23171
0.78460002 19.53260040 0.42289999 209 216 232 20364
0.78460002 19.53269958 0.42390001 209 216 232 16975
0.78450000 19.53199959 0.42490000 209 216 232 13232
0.78450000 19.53009987 0.42590001 183 190 208 9342
0.78450000 19.53030014 0.42690000 183 190 208 6521
0.78450000 19.53170013 0.42789999 183 190 208 4878
0.78450000 19.53020096 0.42890000 183 190 208 5117
0.78439999 19.52869987 0.42980000 183 190 208 7728
0.78439999 19.52849960 0.43079999 183 190 208 11989
0.78439999 19.52809906 0.43180001 183 190 208 16232
0.78450000 19.53030014 0.43279999 183 190 208 19753
0.78439999 19.52799988 0.43370000 131 136 156 22146
0.78439999 19.52939987 0.43480000 131 136 156 24082
0.78439999 19.52849960 0.43579999 131 136 156 25432
0.78450000 19.52980042 0.43680000 131 136 156 26375
0.78439999 19.52939987 0.43779999 131 136 156 26292
0.78439999 19.52960014 0.43880001 131 136 156 26539
0.78439999 19.52869987 0.43979999 131 136 156 27560
0.78439999 19.52759933 0.44069999 131 136 156 28196
0.78430003 19.52659988 0.44170001 186 188 209 28764
0.78430003 19.52639961 0.44270000 186 188 209 28103
0.78439999 19.52729988 0.44369999 186 188 209 28285
0.78420001 19.52400017 0.44459999 186 188 209 27467
0.78430003 19.52540016 0.44560000 186 188 209 27032
0.78430003 19.52580070 0.44659999 186 188 209 27296
0.78439999 19.52689934 0.44760001 186 188 209 27382
0.78430003 19.52639961 0.44850001 186 188 209 28103
0.78430003 19.52440071 0.44949999 218 219 239 28664
0.78430003 19.52510071 0.45050001 218 219 239 28471
0.78430003 19.52470016 0.45140001 218 219 239 28953
0.78430003 19.52470016 0.45240000 218 219 239 29550
0.78430003 19.52600098 0.45339999 218 219 239 28957
0.78430003 19.52529907 0.45440000 218 219 239 28007
0.78420001 19.52219963 0.45530000 218 219 239 28278
0.78420001 19.52370071 0.45629999 218 219 239 28467
0.78430003 19.52490044 0.45739999 218 219 239 29049
0.78420001 19.52300072 0.45829999 211 212 230 28100
0.78410000 19.52160072 0.45930001 211 212 230 27289
0.78420001 19.52269936 0.46030000 211 212 230 28000
0.78420001 19.52230072 0.46129999 211 212 230 27732
0.78410000 19.52129936 0.46219999 211 212 230 28753
0.78399998 19.51939964 0.46320000 211 212 230 28849
0.78410000 19.52120018 0.46419999 211 212 230 29242
0.78410000 19.52090073 0.46520001 211 212 230 29750
0.78410000 19.52129936 0.46619999 216 215 229 30825
0.78410000 19.52079964 0.46709999 216 215 229 31500
0.78399998 19.51950073 0.46810001 216 215 229 30821
0.78399998 19.51810074 0.46900001 216 215 229 30817
0.78399998 19.51860046 0.47000000 216 215 229 30489
0.78399998 19.51910019 0.47099999 216 215 229 29642
0.78399998 19.51880074 0.47200000 216 215 229 28942
0.78410000 19.52050018 0.47310001 216 215 229 29960
0.78399998 19.51950073 0.47400001 227 227 237 29957
0.78410000 19.51989937 0.47499999 227 227 237 30385
0.78410000 19.51989937 0.47600001 227 227 237 30932
