//X Y Z R G B Intensity
-15.56400013 16.20000076 -0.20450000 134 146 172 917
-15.56225014 16.19775009 -0.20250000 134 146 172 896
-15.56250000 16.19799995 -0.20150000 134 146 172 903
-15.56149960 16.19700050 -0.19650000 134 146 172 807
-15.55825043 16.19375038 -0.19425000 109 125 158 917
-15.55700016 16.19249916 -0.19225000 109 125 158 950
-15.55725002 16.19249916 -0.19125000 109 125 158 928
-15.55725002 16.19274902 -0.18925001 109 125 158 942
-15.55774975 16.19325066 -0.18825001 109 125 158 910
-15.55825043 16.19375038 -0.18625000 109 125 158 857
-15.55825043 16.19375038 -0.18525000 92 111 144 875
-15.55375004 16.18925095 -0.18125001 92 111 144 957
-15.55500031 16.19025040 -0.18025000 92 111 144 1050
-15.55175018 16.18700027 -0.17550001 110 125 156 1650
-15.55175018 16.18700027 -0.17450000 110 125 156 1921
-15.55074978 16.18600082 -0.17325000 110 125 156 2521
-15.55150032 16.18675041 -0.17125000 110 125 156 4942
-15.55099964 16.18625069 -0.17025000 110 125 156 7521
-15.55125046 16.18650055 -0.16925000 110 125 156 10710
-15.55125046 16.18650055 -0.16824999 110 125 156 15310
-15.55000019 16.18524933 -0.16725001 110 125 156 19932
-15.55025005 16.18524933 -0.16625001 148 160 186 22589
-15.54924965 16.18449974 -0.16525000 148 160 186 24671
-15.55025005 16.18524933 -0.16425000 148 160 186 25800
-15.54850006 16.18375015 -0.16325000 148 160 186 27253
-15.55025005 16.18549919 -0.16225000 148 160 186 28007
-15.54800034 16.18300056 -0.16125000 148 160 186 27846
-15.54949951 16.18474960 -0.16024999 148 160 186 27546
-15.54899979 16.18424988 -0.15925001 148 160 186 27107
-15.54775047 16.18275070 -0.15825000 148 160 186 26603
-15.54724979 16.18225098 -0.15725000 200 211 231 26885
-15.54699993 16.18199921 -0.15650000 200 211 231 27100
-15.54599953 16.18099976 -0.15549999 200 211 231 28071
-15.54625034 16.18124962 -0.15449999 200 211 231 28307
-15.54724979 16.18250084 -0.15350001 200 211 231 28549
-15.54599953 16.18099976 -0.15250000 200 211 231 26053
-15.54625034 16.18124962 -0.15150000 200 211 231 21346
-15.54524994 16.18025017 -0.15050000 200 211 231 15728
-15.54599953 16.18124962 -0.14950000 200 211 231 9700
-15.54425049 16.17925072 -0.14850000 227 239 253 5121
-15.57275009 16.21025085 -0.24300000 121 140 155 11703
-15.57225037 16.20974922 -0.24200000 150 167 187 17407
-15.57299995 16.21050072 -0.24100000 150 167 187 21489
-15.57174969 16.20949936 -0.23999999 150 167 187 24246
-15.57149982 16.20924950 -0.23899999 150 167 187 25785
-15.57149982 16.20899963 -0.23800001 150 167 187 26314
-15.57200050 16.20949936 -0.23700000 150 167 187 27307
-15.57100010 16.20849991 -0.23600000 150 167 187 27371
-15.56949997 16.20700073 -0.23500000 150 167 187 27517
-15.57149982 16.20899963 -0.23400000 150 167 187 27753
-15.56949997 16.20700073 -0.23300000 199 214 235 27228
-15.56999969 16.20775032 -0.23199999 199 214 235 27303
-15.56974983 16.20725060 -0.23100001 199 214 235 27442
-15.56799984 16.20549965 -0.22975001 199 214 235 26932
-15.56949997 16.20700073 -0.22900000 199 214 235 27010
-15.56850052 16.20599937 -0.22775000 199 214 235 27300
-15.56925011 16.20675087 -0.22700000 199 214 235 26935
-15.56850052 16.20574951 -0.22600000 199 214 235 27300
-15.56750011 16.20475006 -0.22499999 199 214 235 26514
-15.56824970 16.20574951 -0.22400001 199 214 235 26103
-15.56925011 16.20675087 -0.22300000 218 230 252 24957
-15.56649971 16.20375061 -0.22200000 218 230 252 21889
-15.56624985 16.20350075 -0.22100000 218 230 252 16850
-15.56725025 16.20450020 -0.22000000 218 230 252 11285
-15.56674957 16.20425034 -0.21900000 218 230 252 7428
-15.56550026 16.20274925 -0.21699999 218 230 252 3042
-15.56575012 16.20325089 -0.21500000 218 230 252 1600
-15.56250000 16.19974899 -0.21200000 176 187 209 1117
-15.56075001 16.19775009 -0.20874999 176 187 209 1032
-15.56175041 16.19874954 -0.19975001 134 146 172 896
-15.56025028 16.19725037 -0.19775000 134 146 172 842
-15.55700016 16.19400024 -0.19475000 109 125 158 889
-15.55599976 16.19274902 -0.18775000 109 125 158 1003
-15.55649948 16.19350052 -0.18574999 92 111 144 875
-15.55675030 16.19375038 -0.18475001 92 111 144 850
-15.55700016 16.19400024 -0.18375000 92 111 144 882
-15.55200005 16.18899918 -0.17874999 92 111 144 1078
-15.55299950 16.19000053 -0.17775001 92 111 144 1132
-15.55175018 16.18849945 -0.17675000 92 111 144 1200
-15.55375004 16.19075012 -0.17375000 110 125 156 1732
-15.55150032 16.18824959 -0.17174999 110 125 156 3021
-15.55049992 16.18725014 -0.17075001 110 125 156 4321
-15.54949951 16.18625069 -0.16975001 110 125 156 6785
-15.54899979 16.18549919 -0.16850001 110 125 156 10110
-15.55000019 16.18675041 -0.16750000 110 125 156 15167
-15.54949951 16.18625069 -0.16650000 148 160 186 19250
-15.54975033 16.18650055 -0.16550000 148 160 186 22489
-15.54800034 16.18474960 -0.16450000 148 160 186 24435
-15.54874992 16.18549919 -0.16374999 148 160 186 25224
-15.54975033 16.18625069 -0.16275001 148 160 186 26407
-15.54650021 16.18325043 -0.16175000 148 160 186 26535
-15.54699993 16.18375015 -0.16075000 148 160 186 26467
-15.54699993 16.18375015 -0.15975000 148 160 186 27028
-15.54724979 16.18375015 -0.15875000 148 160 186 26960
-15.54650021 16.18300056 -0.15775000 200 211 231 26817
-15.54574966 16.18225098 -0.15674999 200 211 231 26053
-15.54599953 16.18250084 -0.15575001 200 211 231 26467
-15.54524994 16.18174934 -0.15475000 200 211 231 27246
-15.54450035 16.18099976 -0.15375000 200 211 231 26671
-15.54599953 16.18275070 -0.15275000 200 211 231 25092
-15.54625034 16.18275070 -0.15175000 200 211 231 20742
-15.54500008 16.18149948 -0.15075000 200 211 231 14149
-15.54500008 16.18149948 -0.14974999 200 211 231 8932
-15.56999969 16.20899963 -0.24150001 150 167 187 14757
-15.57200050 16.21125031 -0.24050000 150 167 187 19510
-15.57174969 16.21100044 -0.23950000 150 167 187 22835
-15.56949997 16.20849991 -0.23850000 150 167 187 24957
-15.57100010 16.20999908 -0.23750000 150 167 187 26178
-15.56949997 16.20849991 -0.23649999 150 167 187 27228
-15.57100010 16.21025085 -0.23549999 150 167 187 28367
-15.56949997 16.20874977 -0.23450001 150 167 187 27825
-15.56925011 16.20825005 -0.23350000 150 167 187 28128
-15.56949997 16.20849991 -0.23275000 199 214 235 27303
-15.56925011 16.20825005 -0.23175000 199 214 235 26939
-15.56875038 16.20775032 -0.23074999 199 214 235 26867
-15.56875038 16.20775032 -0.22975001 199 214 235 26796
-15.56974983 16.20874977 -0.22875001 199 214 235 27228
-15.56799984 16.20700073 -0.22750001 199 214 235 27010
-15.56750011 16.20650101 -0.22650000 199 214 235 26725
-15.56774998 16.20650101 -0.22550000 199 214 235 26239
-15.56550026 16.20450020 -0.22450000 199 214 235 24707
-15.56700039 16.20599937 -0.22350000 218 230 252 22778
-15.56725025 16.20624924 -0.22250000 218 230 252 19732
-15.56624985 16.20499992 -0.22149999 218 230 252 14860
-15.56674957 16.20549965 -0.22050001 218 230 252 9732
-15.56599998 16.20475006 -0.21950001 218 230 252 5821
-15.56449986 16.20350075 -0.21850000 218 230 252 3685
-15.56200027 16.20075035 -0.21450000 218 230 252 1289
-15.56274986 16.20149994 -0.20850000 176 187 209 971
-15.56050014 16.19924927 -0.20649999 176 187 209 928
-15.56175041 16.20050049 -0.20550001 176 187 209 1017
-15.56200027 16.20075035 -0.20450000 134 146 172 928
-15.55924988 16.19799995 -0.20350000 134 146 172 950
-15.55675030 16.19524956 -0.19850001 134 146 172 896
-15.55749989 16.19625092 -0.19750001 134 146 172 903
-15.55700016 16.19574928 -0.19525000 109 125 158 889
-15.55475044 16.19325066 -0.19225000 109 125 158 882
-15.55399990 16.19249916 -0.18725000 109 125 158 853
-15.55399990 16.19224930 -0.18625000 109 125 158 853
-15.55574989 16.19425011 -0.18425000 92 111 144 850
-15.55224991 16.19075012 -0.17825000 92 111 144 1171
-15.55025005 16.18849945 -0.17425001 110 125 156 1339
-15.55274963 16.19124985 -0.17350000 110 125 156 1450
-15.54899979 16.18725014 -0.17225000 110 125 156 1928
-15.54949951 16.18774986 -0.17125000 110 125 156 2364
-15.54825020 16.18625069 -0.17025000 110 125 156 3335
-15.55049992 16.18874931 -0.16824999 110 125 156 8264
-15.54800034 16.18625069 -0.16725001 110 125 156 11682
-15.54775047 16.18600082 -0.16625001 148 160 186 15685
-15.54874992 16.18700027 -0.16525000 148 160 186 19289
-15.54825020 16.18650055 -0.16425000 148 160 186 21953
-15.54775047 16.18574905 -0.16325000 148 160 186 24550
-15.54699993 16.18499947 -0.16225000 148 160 186 25342
-15.54675007 16.18474960 -0.16125000 148 160 186 25667
-15.54724979 16.18549919 -0.16024999 148 160 186 25667
-15.54524994 16.18325043 -0.15925001 148 160 186 25792
-15.54599953 16.18400002 -0.15825000 148 160 186 25471
-15.54599953 16.18424988 -0.15750000 200 211 231 25860
-15.54500008 16.18300056 -0.15650000 200 211 231 26189
-15.54524994 16.18350029 -0.15549999 200 211 231 26189
-15.54425049 16.18250084 -0.15449999 200 211 231 26257
-15.54524994 16.18350029 -0.15350001 200 211 231 24078
-15.54500008 16.18300056 -0.15250000 200 211 231 20282
-15.54349995 16.18174934 -0.15150000 200 211 231 14832
-15.54475021 16.18300056 -0.15050000 200 211 231 9203
-15.56974983 16.21025085 -0.24300000 121 140 155 7078
-15.56925011 16.20974922 -0.24200000 150 167 187 11392
-15.56925011 16.20974922 -0.24100000 150 167 187 15910
-15.57024956 16.21075058 -0.23999999 150 167 187 20121
-15.57075024 16.21125031 -0.23899999 150 167 187 23200
-15.56999969 16.21050072 -0.23800001 150 167 187 25589
-15.56900024 16.20949936 -0.23700000 150 167 187 26521
-15.56999969 16.21050072 -0.23600000 150 167 187 27232
-15.56974983 16.20999908 -0.23500000 150 167 187 27596
-15.57024956 16.21075058 -0.23400000 150 167 187 27375
-15.56824970 16.20849991 -0.23300000 199 214 235 26796
-15.56850052 16.20874977 -0.23199999 199 214 235 26378
-15.56774998 16.20825005 -0.23074999 199 214 235 26103
-15.56750011 16.20800018 -0.22975001 199 214 235 27078
-15.56725025 16.20775032 -0.22875001 199 214 235 27078
-15.56649971 16.20675087 -0.22775000 199 214 235 27150
-15.56599998 16.20624924 -0.22675000 199 214 235 26446
-15.56649971 16.20675087 -0.22600000 199 214 235 25642
-15.56474972 16.20499992 -0.22475000 199 214 235 23403
-15.56725025 16.20750046 -0.22400001 199 214 235 20117
-15.56575012 16.20599937 -0.22300000 218 230 252 15125
-15.56449986 16.20475006 -0.22200000 218 230 252 10082
-15.56674957 16.20700073 -0.22100000 218 230 252 6482
-15.56674957 16.20700073 -0.22000000 218 230 252 4003
-15.56400013 16.20425034 -0.21900000 218 230 252 2971
-15.56274986 16.20299911 -0.21775000 218 230 252 2132
-15.56175041 16.20199966 -0.21675000 218 230 252 1671
-15.56449986 16.20475006 -0.21600001 218 230 252 1260
-15.56324959 16.20350075 -0.21400000 176 187 209 1125
-15.56274986 16.20299911 -0.21175000 176 187 209 1064
-15.56124973 16.20125008 -0.20874999 176 187 209 928
-15.55749989 16.19750023 -0.20275000 134 146 172 903
-15.55749989 16.19725037 -0.20175000 134 146 172 950
-15.55725002 16.19725037 -0.19575000 134 146 172 889
-15.55449963 16.19449997 -0.19275001 109 125 158 882
-15.55325031 16.19300079 -0.18775000 109 125 158 800
-15.55325031 16.19300079 -0.18674999 109 125 158 903
-15.55125046 16.19099998 -0.18375000 92 111 144 853
-15.55200005 16.19174957 -0.18275000 92 111 144 921
-15.55125046 16.19075012 -0.18175000 92 111 144 910
-15.55350018 16.19325066 -0.17874999 92 111 144 1025
-15.54775047 16.18725014 -0.16750000 110 125 156 7932
-15.54850006 16.18799973 -0.16650000 148 160 186 11392
-15.54924965 16.18874931 -0.16550000 148 160 186 16060
-15.54775047 16.18725014 -0.16450000 148 160 186 19032
-15.54724979 16.18700027 -0.16350000 148 160 186 21489
-15.54775047 16.18725014 -0.16249999 148 160 186 24032
-15.54825020 16.18774986 -0.16175000 148 160 186 24735
-15.54625034 16.18574905 -0.16075000 148 160 186 25410
-15.54500008 16.18449974 -0.15975000 148 160 186 26125
-15.54599953 16.18549919 -0.15875000 148 160 186 25342
-15.54500008 16.18424988 -0.15775000 200 211 231 25928
-15.54425049 16.18375015 -0.15674999 200 211 231 26053
-15.54425049 16.18375015 -0.15575001 200 211 231 25596
-15.54500008 16.18449974 -0.15475000 200 211 231 24850
-15.54349995 16.18300056 -0.15375000 200 211 231 23417
-15.54399967 16.18325043 -0.15275000 200 211 231 19317
-15.54300022 16.18225098 -0.15175000 200 211 231 13382
-15.54399967 16.18350029 -0.15075000 200 211 231 7853
-15.56875038 16.21075058 -0.24050000 150 167 187 13703
-15.56925011 16.21125031 -0.23950000 150 167 187 18285
-15.56900024 16.21100044 -0.23850000 150 167 187 21853
-15.56875038 16.21075058 -0.23750000 150 167 187 24596
-15.56900024 16.21100044 -0.23649999 150 167 187 25846
-15.56900024 16.21100044 -0.23549999 150 167 187 26800
-15.56700039 16.20899963 -0.23450001 150 167 187 26935
-15.56799984 16.20999908 -0.23350000 150 167 187 26521
-15.56774998 16.20974922 -0.23250000 199 214 235 26378
-15.56674957 16.20874977 -0.23150000 199 214 235 25457
-15.56550026 16.20725060 -0.23050000 199 214 235 26103
-15.56550026 16.20750046 -0.22950000 199 214 235 26103
-15.56500053 16.20700073 -0.22849999 199 214 235 26167
-15.56550026 16.20750046 -0.22750001 199 214 235 26235
-15.56550026 16.20750046 -0.22650000 199 214 235 25264
-15.56449986 16.20650101 -0.22550000 199 214 235 23296
-15.56474972 16.20675087 -0.22450000 199 214 235 20278
-15.56500053 16.20675087 -0.22350000 218 230 252 15353
-15.56474972 16.20675087 -0.22250000 218 230 252 11360
-15.56400013 16.20574951 -0.22149999 218 230 252 7407
-15.56350040 16.20549965 -0.22050001 218 230 252 4617
-15.56250000 16.20425034 -0.21950001 218 230 252 2921
-15.56400013 16.20574951 -0.21650000 218 230 252 1425
-15.55999947 16.20174980 -0.21250001 176 187 209 1046
-15.56099987 16.20274925 -0.20850000 176 187 209 917
-15.55850029 16.20000076 -0.20450000 134 146 172 910
-15.55799961 16.19949913 -0.19949999 134 146 172 928
-15.55550003 16.19700050 -0.19625001 134 146 172 867
-15.55500031 16.19650078 -0.19325000 109 125 158 860
-15.55449963 16.19599915 -0.19125000 109 125 158 896
-15.55249977 16.19375038 -0.18125001 92 111 144 975
-15.54975033 16.19099998 -0.17925000 92 111 144 950
-15.54899979 16.19000053 -0.17825000 92 111 144 1010
-15.55074978 16.19224930 -0.17725000 92 111 144 1057
-15.54874992 16.19000053 -0.17524999 110 125 156 1050
-15.54775047 16.18899918 -0.17425001 110 125 156 1132
-15.54975033 16.19099998 -0.17225000 110 125 156 1450
-15.54650021 16.18774986 -0.16925000 110 125 156 2710
-15.54500008 16.18625069 -0.16725001 110 125 156 5550
-15.54524994 16.18650055 -0.16625001 148 160 186 7957
-15.54699993 16.18824959 -0.16525000 148 160 186 11446
-15.54675007 16.18774986 -0.16425000 148 160 186 15350
-15.54574966 16.18675041 -0.16325000 148 160 186 19178
-15.54475021 16.18574905 -0.16225000 148 160 186 21996
-15.54500008 16.18625069 -0.16125000 148 160 186 23528
-15.54475021 16.18574905 -0.16024999 148 160 186 25092
-15.54549980 16.18675041 -0.15925001 148 160 186 25864
-15.54349995 16.18449974 -0.15825000 148 160 186 26189
-15.54500008 16.18600082 -0.15725000 200 211 231 26125
-15.54325008 16.18400002 -0.15625000 200 211 231 25732
-15.54300022 16.18400002 -0.15525000 200 211 231 24253
-15.54450035 16.18549919 -0.15425000 200 211 231 21903
-15.54300022 16.18400002 -0.15324999 200 211 231 16689
-15.54325008 16.18424988 -0.15225001 200 211 231 11103
-15.54100037 16.18199921 -0.15125000 200 211 231 6607
-15.56824970 16.21150017 -0.23999999 150 167 187 15242
-15.56949997 16.21299934 -0.23899999 150 167 187 19625
-15.56850052 16.21175003 -0.23800001 150 167 187 23142
-15.56875038 16.21199989 -0.23700000 150 167 187 25021
-15.56750011 16.21050072 -0.23600000 150 167 187 25392
-15.56624985 16.20949936 -0.23500000 150 167 187 25457
-15.56674957 16.20999908 -0.23400000 150 167 187 25714
-15.56599998 16.20899963 -0.23300000 199 214 235 25389
-15.56624985 16.20949936 -0.23199999 199 214 235 25517
-15.56624985 16.20949936 -0.23100001 199 214 235 25585
-15.56500053 16.20800018 -0.22975001 199 214 235 25778
-15.56599998 16.20924950 -0.22900000 199 214 235 24896
-15.56599998 16.20899963 -0.22800000 199 214 235 25078
-15.56474972 16.20800018 -0.22675000 199 214 235 22878
-15.56474972 16.20775032 -0.22575000 199 214 235 19500
-15.56500053 16.20825005 -0.22499999 199 214 235 15421
-15.56400013 16.20700073 -0.22375000 199 214 235 10710
-15.56200027 16.20499992 -0.22274999 218 230 252 6778
-15.56449986 16.20775032 -0.22000000 218 230 252 2178
-15.56124973 16.20425034 -0.21875000 218 230 252 1700
-15.56200027 16.20499992 -0.21799999 218 230 252 1342
-15.55900002 16.20174980 -0.21075000 176 187 209 875
-15.56025028 16.20325089 -0.20975000 176 187 209 889
-15.56050014 16.20350075 -0.20774999 176 187 209 935
-15.55249977 16.19524956 -0.19175000 109 125 158 875
-15.55475044 16.19750023 -0.19075000 109 125 158 889
-15.55449963 16.19725037 -0.18875000 109 125 158 971
-15.55074978 16.19325066 -0.18775000 109 125 158 800
-15.54874992 16.19124985 -0.17675000 92 111 144 942
-15.54749966 16.18975067 -0.17475000 110 125 156 1117
-15.55049992 16.19300079 -0.17375000 110 125 156 1200
-15.54924965 16.19174957 -0.17075001 110 125 156 1617
-15.54650021 16.18874931 -0.16850001 110 125 156 2378
-15.54475021 16.18700027 -0.16650000 148 160 186 5089
-15.54625034 16.18849945 -0.16550000 148 160 186 8092
-15.54574966 16.18799973 -0.16450000 148 160 186 11092
-15.54650021 16.18899918 -0.16350000 148 160 186 15150
-15.54450035 16.18675041 -0.16249999 148 160 186 18964
-15.54500008 16.18725014 -0.16150001 148 160 186 21532
-15.54475021 16.18700027 -0.16050000 148 160 186 24028
-15.54500008 16.18725014 -0.15950000 148 160 186 25667
-15.54325008 16.18549919 -0.15850000 148 160 186 26125
-15.54374981 16.18600082 -0.15750000 200 211 231 25732
-15.54349995 16.18574905 -0.15650000 200 211 231 26057
-15.54249954 16.18474960 -0.15575001 200 211 231 24785
-15.54300022 16.18524933 -0.15475000 200 211 231 22682
-15.54275036 16.18499947 -0.15375000 200 211 231 17707
-15.54125023 16.18350029 -0.15275000 200 211 231 12371
-15.54249954 16.18474960 -0.15175000 200 211 231 6510
-15.56799984 16.21274948 -0.24050000 150 167 187 9182
-15.56750011 16.21199989 -0.23950000 150 167 187 13521
-15.56824970 16.21299934 -0.23850000 150 167 187 18285
-15.56799984 16.21274948 -0.23750000 150 167 187 21392
-15.56674957 16.21125031 -0.23649999 150 167 187 23575
-15.56649971 16.21100044 -0.23549999 150 167 187 24478
-15.56624985 16.21100044 -0.23450001 150 167 187 24957
-15.56700039 16.21150017 -0.23350000 150 167 187 25210
-15.56575012 16.21025085 -0.23250000 199 214 235 24417
-15.56550026 16.20999908 -0.23150000 199 214 235 24957
-15.56550026 16.20999908 -0.23050000 199 214 235 24835
-15.56474972 16.20924950 -0.22950000 199 214 235 25074
-15.56400013 16.20849991 -0.22849999 199 214 235 24832
-15.56474972 16.20924950 -0.22750001 199 214 235 23514
-15.56424999 16.20874977 -0.22650000 199 214 235 21035
-15.56324959 16.20775032 -0.22550000 199 214 235 17225
-15.56324959 16.20775032 -0.22450000 199 214 235 12321
-15.56324959 16.20775032 -0.22350000 218 230 252 7957
-15.56250000 16.20675087 -0.22250000 218 230 252 5153
-15.56274986 16.20725060 -0.21450000 218 230 252 1039
-15.55974960 16.20425034 -0.21349999 176 187 209 1003
-15.56099987 16.20549965 -0.21050000 176 187 209 910
-15.55850029 16.20299911 -0.20850000 176 187 209 889
-15.55375004 16.19799995 -0.19325000 109 125 158 821
-15.55125046 16.19549942 -0.19024999 109 125 158 842
-15.55150032 16.19549942 -0.18925001 109 125 158 875
-15.55399990 16.19799995 -0.18825001 109 125 158 910
-15.55274963 16.19675064 -0.18725000 109 125 158 860
-15.55200005 16.19599915 -0.18525000 92 111 144 978
-15.55049992 16.19449997 -0.18125001 92 111 144 996
-15.54975033 16.19350052 -0.17825000 92 111 144 996
-15.54625034 16.19000053 -0.17524999 110 125 156 982
-15.54450035 16.18824959 -0.16925000 110 125 156 1625
-15.54650021 16.19025040 -0.16824999 110 125 156 2014
-15.54800034 16.19199944 -0.16725001 110 125 156 2675
-15.54475021 16.18849945 -0.16525000 148 160 186 5321
-15.54475021 16.18849945 -0.16425000 148 160 186 7971
-15.54574966 16.18950081 -0.16325000 148 160 186 11871
-15.54425049 16.18799973 -0.16225000 148 160 186 15489
-15.54399967 16.18774986 -0.16125000 148 160 186 19246
-15.54349995 16.18725014 -0.16024999 148 160 186 22092
-15.54325008 16.18700027 -0.15925001 148 160 186 24142
-15.54325008 16.18675041 -0.15825000 148 160 186 25539
-15.54224968 16.18600082 -0.15725000 200 211 231 26189
-15.54275036 16.18650055 -0.15625000 200 211 231 25092
-15.54300022 16.18650055 -0.15525000 200 211 231 22285
-15.54300022 16.18675041 -0.15425000 200 211 231 17053
-15.54199982 16.18574905 -0.15324999 200 211 231 10342
-15.54049969 16.18424988 -0.15225001 200 211 231 5925
-15.56674957 16.21274948 -0.23999999 150 167 187 10085
-15.56674957 16.21274948 -0.23899999 150 167 187 14007
-15.56700039 16.21324921 -0.23800001 150 167 187 18792
-15.56550026 16.21150017 -0.23700000 150 167 187 21350
-15.56500053 16.21100044 -0.23600000 150 167 187 23357
-15.56599998 16.21199989 -0.23500000 150 167 187 24303
-15.56500053 16.21100044 -0.23400000 150 167 187 24300
-15.56575012 16.21175003 -0.23300000 199 214 235 24417
-15.56525040 16.21125031 -0.23199999 199 214 235 24775
-15.56474972 16.21075058 -0.23100001 199 214 235 24835
-15.56424999 16.21025085 -0.22975001 199 214 235 24535
-15.56400013 16.20999908 -0.22875001 199 214 235 23953
-15.56449986 16.21050072 -0.22800000 199 214 235 21525
-15.56375027 16.20974922 -0.22700000 199 214 235 17435
-15.56274986 16.20874977 -0.22575000 199 214 235 12307
-15.56099987 16.20675087 -0.22475000 199 214 235 8453
-15.56075001 16.20675087 -0.22375000 199 214 235 5353
-15.56350040 16.20949936 -0.22300000 218 230 252 3382
-15.55974960 16.20549965 -0.22175001 218 230 252 2396
-15.56274986 16.20874977 -0.22100000 218 230 252 1753
-15.56124973 16.20700073 -0.21275000 176 187 209 1053
-15.55675030 16.20224953 -0.20375000 134 146 172 882
-15.55649948 16.20224953 -0.19875000 134 146 172 814
-15.55574989 16.20125008 -0.19775000 134 146 172 857
-15.55550003 16.20100021 -0.19675000 134 146 172 753
-15.55175018 16.19700050 -0.19575000 134 146 172 792
-15.55150032 16.19700050 -0.19374999 109 125 158 789
-15.55099964 16.19650078 -0.19175000 109 125 158 807
-15.55399990 16.19949913 -0.18975000 109 125 158 828
-15.55125046 16.19650078 -0.18875000 109 125 158 875
-15.54975033 16.19524956 -0.18775000 109 125 158 935
-15.55074978 16.19625092 -0.18674999 109 125 158 982
-15.54924965 16.19449997 -0.18275000 92 111 144 950
-15.55074978 16.19599915 -0.18175000 92 111 144 996
-15.54724979 16.19249916 -0.17675000 92 111 144 964
-15.54675007 16.19199944 -0.17575000 110 125 156 1032
-15.54874992 16.19400024 -0.17475000 110 125 156 1017
-15.54475021 16.19000053 -0.17275000 110 125 156 1103
-15.54450035 16.18975067 -0.17174999 110 125 156 1200
-15.54699993 16.19224930 -0.16975001 110 125 156 1321
-15.54675007 16.19199944 -0.16850001 110 125 156 1571
-15.54500008 16.19025040 -0.16750000 110 125 156 1757
-15.54374981 16.18899918 -0.16650000 148 160 186 2371
-15.54199982 16.18700027 -0.16450000 148 160 186 4528
-15.54349995 16.18874931 -0.16350000 148 160 186 7085
-15.54374981 16.18899918 -0.16249999 148 160 186 10467
-15.54349995 16.18874931 -0.16150001 148 160 186 14835
-15.54249954 16.18750000 -0.16050000 148 160 186 18307
-15.54325008 16.18824959 -0.15950000 148 160 186 21714
-15.54249954 16.18774986 -0.15850000 148 160 186 24028
-15.54125023 16.18625069 -0.15750000 200 211 231 25089
-15.54199982 16.18700027 -0.15650000 200 211 231 24314
-15.54249954 16.18774986 -0.15575001 200 211 231 20742
-15.54100037 16.18600082 -0.15475000 200 211 231 15628
-15.54174995 16.18675041 -0.15375000 200 211 231 9642
-15.54075050 16.18574905 -0.15275000 200 211 231 5257
-15.56474972 16.21199989 -0.23850000 115 134 151 12614
-15.56624985 16.21375084 -0.23750000 115 134 151 16217
-15.56649971 16.21400070 -0.23649999 115 134 151 19967
-15.56525040 16.21249962 -0.23549999 115 134 151 22039
-15.56350040 16.21100044 -0.23450001 115 134 151 23300
-15.56299973 16.21050072 -0.23350000 115 134 151 23732
-15.56500053 16.21249962 -0.23250000 164 181 201 24017
-15.56400013 16.21125031 -0.23150000 164 181 201 24475
-15.56424999 16.21150017 -0.23050000 164 181 201 24896
-15.56350040 16.21075058 -0.22950000 164 181 201 23732
-15.56350040 16.21075058 -0.22849999 164 181 201 21753
-15.56350040 16.21075058 -0.22750001 164 181 201 17610
-15.56274986 16.20999908 -0.22650000 164 181 201 12678
-15.56149960 16.20874977 -0.22550000 164 181 201 8503
-15.56050014 16.20775032 -0.22450000 164 181 201 4896
-15.56324959 16.21050072 -0.22350000 178 193 216 3207
-15.56350040 16.21100044 -0.22250000 178 193 216 2342
-15.56025028 16.20725060 -0.22149999 178 193 216 1760
-15.56124973 16.20849991 -0.22050001 178 193 216 1425
-15.56075001 16.20800018 -0.21850000 178 193 216 1228
-15.56200027 16.20924950 -0.21750000 178 193 216 1064
-15.55875015 16.20599937 -0.21349999 130 142 166 903
-15.55850029 16.20574951 -0.21250001 130 142 166 857
-15.55900002 16.20624924 -0.20950000 130 142 166 850
-15.55550003 16.20249939 -0.20750000 130 142 166 782
-15.55525017 16.20224953 -0.20450000 103 117 143 767
-15.55325031 16.20025063 -0.20250000 103 117 143 835
-15.55649948 16.20350075 -0.19949999 103 117 143 753
-15.55399990 16.20100021 -0.19225000 98 117 147 842
-15.54949951 16.19625092 -0.19125000 98 117 147 842
-15.55274963 16.19974899 -0.19024999 98 117 147 850
-15.54975033 16.19650078 -0.18725000 98 117 147 914
-15.55000019 16.19675064 -0.18525000 104 125 156 1003
-15.54924965 16.19625092 -0.18425000 104 125 156 935
-15.54724979 16.19400024 -0.18325000 104 125 156 928
-15.54475021 16.19149971 -0.17625000 110 127 155 907
-15.54699993 16.19350052 -0.17524999 110 127 155 971
-15.54549980 16.19199944 -0.17425001 110 127 155 989
-15.54675007 16.19350052 -0.17125000 110 127 155 1057
-15.54325008 16.18975067 -0.16824999 110 127 155 1475
-15.54199982 16.18849945 -0.16525000 107 121 147 2567
-15.54174995 16.18799973 -0.16325000 107 121 147 5553
-15.54174995 16.18824959 -0.16225000 107 121 147 8164
-15.54249954 16.18899918 -0.16125000 107 121 147 11625
-15.54125023 16.18774986 -0.16024999 107 121 147 15657
-15.54174995 16.18824959 -0.15925001 107 121 147 20046
-15.54125023 16.18774986 -0.15825000 107 121 147 22435
-15.54174995 16.18824959 -0.15725000 142 155 174 22942
-15.54249954 16.18899918 -0.15650000 142 155 174 19467
-15.54150009 16.18774986 -0.15525000 142 155 174 14792
-15.53950024 16.18600082 -0.15425000 142 155 174 9100
-15.56500053 16.21375084 -0.23700000 115 134 151 15764
-15.56299973 16.21175003 -0.23600000 115 134 151 19214
-15.56375027 16.21249962 -0.23500000 115 134 151 21707
-15.56324959 16.21224976 -0.23400000 115 134 151 23139
-15.56299973 16.21199989 -0.23300000 164 181 201 24300
-15.56324959 16.21199989 -0.23199999 164 181 201 24360
-15.56299973 16.21175003 -0.23100001 164 181 201 24650
-15.56299973 16.21175003 -0.23000000 164 181 201 22475
-15.56375027 16.21249962 -0.22900000 164 181 201 18957
-15.56274986 16.21175003 -0.22800000 164 181 201 13321
-15.56124973 16.20999908 -0.22700000 164 181 201 8753
-15.56149960 16.21025085 -0.22600000 164 181 201 5335
-15.55900002 16.20775032 -0.22375000 164 181 201 2450
-15.55850029 16.20725060 -0.22175001 178 193 216 1389
-15.56075001 16.20949936 -0.21875000 178 193 216 1175
-15.55900002 16.20750046 -0.21475001 178 193 216 989
-15.55624962 16.20475006 -0.21075000 130 142 166 807
-15.55599976 16.20450020 -0.20774999 130 142 166 867
-15.55299950 16.20149994 -0.19975001 103 117 143 860
-15.55350018 16.20199966 -0.19875000 103 117 143 917
-15.55424976 16.20274925 -0.19775000 103 117 143 867
-15.55049992 16.19874954 -0.19575000 103 117 143 800
-15.55299950 16.20125008 -0.19374999 98 117 147 767
-15.55200005 16.20025063 -0.19075000 98 117 147 842
-15.54899979 16.19725037 -0.18775000 98 117 147 889
-15.54975033 16.19799995 -0.18075000 104 125 156 921
-15.54475021 16.19300079 -0.17575000 110 127 155 989
-15.54475021 16.19300079 -0.17375000 110 127 155 1025
-15.54524994 16.19325066 -0.17275000 110 127 155 1057
-15.54300022 16.19099998 -0.17174999 110 127 155 1028
-15.54524994 16.19325066 -0.16650000 107 121 147 1460
-15.54249954 16.19050026 -0.16450000 107 121 147 2500
-15.54425049 16.19224930 -0.16350000 107 121 147 3500
-15.54224968 16.19025040 -0.16249999 107 121 147 5300
-15.54100037 16.18899918 -0.16150001 107 121 147 8339
-15.54100037 16.18899918 -0.16050000 107 121 147 11746
-15.54150009 16.18950081 -0.15950000 107 121 147 15953
-15.54024982 16.18799973 -0.15850000 107 121 147 18921
-15.53999996 16.18799973 -0.15750000 142 155 174 18710
-15.54049969 16.18849945 -0.15650000 142 155 174 15260
-15.54075050 16.18849945 -0.15549999 142 155 174 11153
-15.53950024 16.18750000 -0.15449999 142 155 174 6675
-15.56274986 16.21299934 -0.23750000 115 134 151 9410
-15.56324959 16.21350098 -0.23649999 115 134 151 13450
-15.56400013 16.21425056 -0.23549999 115 134 151 17289
-15.56299973 16.21350098 -0.23450001 115 134 151 21125
-15.56274986 16.21299934 -0.23350000 115 134 151 22132
-15.56324959 16.21350098 -0.23250000 164 181 201 24071
-15.56299973 16.21324921 -0.23150000 164 181 201 24896
-15.56075001 16.21100044 -0.23050000 164 181 201 23135
-15.56124973 16.21150017 -0.22950000 164 181 201 19135
-15.56225014 16.21249962 -0.22849999 164 181 201 14585
-15.56225014 16.21249962 -0.22750001 164 181 201 9592
-15.55900002 16.20899963 -0.22650000 164 181 201 5846
-15.56149960 16.21175003 -0.22550000 164 181 201 3617
-15.55825043 16.20825005 -0.22450000 164 181 201 2496
-15.55924988 16.20949936 -0.22250000 178 193 216 1539
-15.56050014 16.21075058 -0.22050001 178 193 216 1200
-15.55900002 16.20924950 -0.21349999 130 142 166 896
-15.55749989 16.20750046 -0.21250001 130 142 166 950
-15.55525017 16.20524979 -0.20950000 130 142 166 789
-15.55550003 16.20549965 -0.20750000 130 142 166 821
-15.55649948 16.20650101 -0.20550001 130 142 166 814
-15.55325031 16.20325089 -0.20450000 103 117 143 807
-15.55399990 16.20375061 -0.19850001 103 117 143 882
-15.55150032 16.20149994 -0.19450000 98 117 147 850
-15.54850006 16.19824982 -0.19325000 98 117 147 821
-15.54874992 16.19849968 -0.18224999 104 125 156 935
-15.54699993 16.19675064 -0.17925000 104 125 156 935
-15.54650021 16.19599915 -0.17225000 110 127 155 921
-15.54325008 16.19274902 -0.17025000 110 127 155 1071
-15.54450035 16.19425011 -0.16625001 107 121 147 1460
-15.53950024 16.18899918 -0.16225000 107 121 147 3714
-15.53999996 16.18925095 -0.16125000 107 121 147 5428
-15.53899956 16.18849945 -0.16024999 107 121 147 7907
-15.54024982 16.18950081 -0.15925001 107 121 147 10935
-15.54174995 16.19124985 -0.15825000 107 121 147 11857
-15.54150009 16.19099998 -0.15650000 142 155 174 7821
-15.53999996 16.18925095 -0.15525000 142 155 174 4882
-15.56149960 16.21299934 -0.23700000 115 134 151 9321
-15.56200027 16.21375084 -0.23600000 115 134 151 13503
-15.56375027 16.21549988 -0.23500000 115 134 151 17317
-15.56200027 16.21375084 -0.23400000 115 134 151 21167
-15.56200027 16.21350098 -0.23300000 164 181 201 23903
-15.56175041 16.21324921 -0.23199999 164 181 201 23192
-15.56324959 16.21500015 -0.23100001 164 181 201 20910
-15.56175041 16.21324921 -0.23000000 164 181 201 16450
-15.56075001 16.21224976 -0.22900000 164 181 201 10503
-15.55974960 16.21125031 -0.22800000 164 181 201 6450
-15.55949974 16.21100044 -0.22700000 164 181 201 3814
-15.55949974 16.21100044 -0.22600000 164 181 201 2728
-15.55774975 16.20924950 -0.22499999 164 181 201 2039
-15.55974960 16.21150017 -0.22200000 178 193 216 1167
-15.55624962 16.20775032 -0.22075000 178 193 216 1160
-15.55599976 16.20725060 -0.21574999 178 193 216 1003
-15.55475044 16.20599937 -0.21475001 178 193 216 964
-15.55649948 16.20800018 -0.21375000 130 142 166 910
-15.55449963 16.20574951 -0.21175000 130 142 166 935
-15.55675030 16.20800018 -0.20999999 130 142 166 896
-15.55200005 16.20325089 -0.20675001 130 142 166 850
-15.55224991 16.20325089 -0.20375000 103 117 143 796
-15.55249977 16.20375061 -0.19775000 103 117 143 857
-15.54975033 16.20100021 -0.19374999 98 117 147 814
-15.54949951 16.20075035 -0.19275001 98 117 147 821
-15.54775047 16.19899940 -0.18975000 98 117 147 867
-15.54975033 16.20075035 -0.18775000 98 117 147 942
-15.54749966 16.19849968 -0.17975000 104 125 156 889
-15.54325008 16.19400024 -0.17375000 110 127 155 1003
-15.54224968 16.19300079 -0.17275000 110 127 155 896
-15.54475021 16.19574928 -0.16975001 110 127 155 1064
-15.54325008 16.19400024 -0.16850001 110 127 155 1003
-15.54325008 16.19425011 -0.16450000 107 121 147 1503
-15.53999996 16.19075012 -0.16350000 107 121 147 1953
-15.53824997 16.18874931 -0.16249999 107 121 147 2696
-15.53950024 16.19000053 -0.16050000 107 121 147 5125
-15.54125023 16.19199944 -0.15950000 107 121 147 6535
-15.53775024 16.18824959 -0.15750000 142 155 174 6328
-15.53999996 16.19075012 -0.15674999 142 155 174 4321
-15.56175041 16.21500015 -0.23450001 115 134 151 16882
-15.56400013 16.21699905 -0.23350000 115 134 151 19435
-15.56324959 16.21624947 -0.23250000 164 181 201 20407
-15.56124973 16.21425056 -0.23150000 164 181 201 18478
-15.56124973 16.21425056 -0.23050000 164 181 201 14139
-15.56124973 16.21425056 -0.22950000 164 181 201 9357
-15.56124973 16.21425056 -0.22849999 164 181 201 5896
-15.55774975 16.21075058 -0.22750001 164 181 201 3807
-15.55825043 16.21125031 -0.22550000 164 181 201 2050
-15.55700016 16.20974922 -0.22450000 164 181 201 1464
-15.55875015 16.21175003 -0.22350000 178 193 216 1260
-15.56050014 16.21350098 -0.22250000 178 193 216 1207
-15.55900002 16.21199989 -0.21950001 178 193 216 1053
-15.55725002 16.21025085 -0.21850000 178 193 216 1032
-15.55725002 16.20999908 -0.21550000 178 193 216 1071
-15.55350018 16.20624924 -0.21349999 130 142 166 935
-15.55274963 16.20549965 -0.20950000 130 142 166 857
-15.55249977 16.20499992 -0.20850000 130 142 166 903
-15.55200005 16.20450020 -0.20750000 130 142 166 807
-15.55150032 16.20425034 -0.20125000 103 117 143 800
-15.55224991 16.20499992 -0.19925000 103 117 143 814
-15.55025005 16.20299911 -0.19825000 103 117 143 850
-15.55125046 16.20400047 -0.19724999 103 117 143 835
-15.54975033 16.20224953 -0.19425000 98 117 147 807
-15.55025005 16.20274925 -0.19125000 98 117 147 850
-15.54625034 16.19874954 -0.18725000 98 117 147 914
-15.54574966 16.19824982 -0.18425000 104 125 156 935
-15.54349995 16.19599915 -0.18125001 104 125 156 853
-15.54150009 16.19375038 -0.17325000 110 127 155 967
-15.53874969 16.19075012 -0.16425000 107 121 147 1321
-15.53849983 16.19075012 -0.16325000 107 121 147 1542
-15.53725052 16.18925095 -0.16125000 107 121 147 2278
-15.53824997 16.19025040 -0.16024999 107 121 147 2896
-15.53925037 16.19124985 -0.15925001 107 121 147 3450
-15.53625011 16.18824959 -0.15825000 107 121 147 3425
-15.56124973 16.21574974 -0.23500000 115 134 151 11260
-15.56050014 16.21500015 -0.23400000 115 134 151 14775
-15.56075001 16.21525002 -0.23300000 164 181 201 15782
-15.56025028 16.21475029 -0.23199999 164 181 201 14239
-15.55949974 16.21375084 -0.23000000 164 181 201 6592
-15.56075001 16.21525002 -0.22900000 164 181 201 3925
-15.55825043 16.21274948 -0.22800000 164 181 201 2807
-15.55825043 16.21274948 -0.22700000 164 181 201 2032
-15.55850029 16.21299934 -0.22499999 164 181 201 1335
-15.55725002 16.21150017 -0.21875000 178 193 216 1025
-15.55774975 16.21199989 -0.21775000 178 193 216 1064
-15.55274963 16.20700073 -0.20575000 130 142 166 700
-15.54949951 16.20350075 -0.19275001 98 117 147 789
-15.54775047 16.20149994 -0.19075000 98 117 147 875
-15.54599953 16.19974899 -0.18975000 98 117 147 903
-15.54500008 16.19874954 -0.18775000 98 117 147 889
-15.54650021 16.20025063 -0.18674999 98 117 147 910
-15.54650021 16.20025063 -0.18475001 104 125 156 982
-15.54349995 16.19725037 -0.17375000 110 127 155 910
-15.54100037 16.19449997 -0.17275000 110 127 155 1003
-15.53925037 16.19274902 -0.16550000 107 121 147 1035
-15.53925037 16.19274902 -0.16050000 107 121 147 1739
-15.53725052 16.19075012 -0.15950000 107 121 147 1932
-15.55949974 16.21549988 -0.23450001 115 134 151 8485
-15.55999947 16.21574974 -0.23350000 115 134 151 9950
-15.56025028 16.21624947 -0.23250000 164 181 201 9667
-15.55900002 16.21500015 -0.23150000 164 181 201 7746
-15.55725002 16.21299934 -0.23050000 164 181 201 5253
-15.55725002 16.21299934 -0.22849999 164 181 201 2539
-15.55725002 16.21299934 -0.22750001 164 181 201 2092
-15.55500031 16.21075058 -0.22250000 178 193 216 1057
-15.55424976 16.20999908 -0.21450000 178 193 216 1003
-15.55350018 16.20924950 -0.20850000 130 142 166 850
-15.55025005 16.20599937 -0.20550001 130 142 166 875
-15.55125046 16.20675087 -0.20450000 103 117 143 796
-15.55125046 16.20675087 -0.20225000 103 117 143 857
-15.54850006 16.20400047 -0.19724999 103 117 143 821
-15.54724979 16.20274925 -0.19625001 103 117 143 767
-15.54850006 16.20400047 -0.19350000 98 117 147 828
-15.54825020 16.20350075 -0.19149999 98 117 147 889
-15.54325008 16.19849968 -0.17825000 104 125 156 975
-15.54224968 16.19750023 -0.17725000 104 125 156 867
-15.54024982 16.19549942 -0.17524999 110 127 155 882
-15.53975010 16.19474983 -0.17425001 110 127 155 982
-15.53950024 16.19474983 -0.16824999 110 127 155 896
-15.54075050 16.19574928 -0.16625001 107 121 147 896
-15.55725002 16.21450043 -0.23300000 164 181 201 4185
-15.55900002 16.21649933 -0.23199999 164 181 201 3328
-15.55924988 16.21674919 -0.23100001 164 181 201 2496
-15.55700016 16.21425056 -0.22900000 164 181 201 1675
-15.55974960 16.21725082 -0.22800000 164 181 201 1500
-15.55799961 16.21549988 -0.22700000 164 181 201 1228
-15.55599976 16.21324921 -0.22375000 164 181 201 971
-15.55574989 16.21299934 -0.21975000 178 193 216 978
-15.55500031 16.21224976 -0.21775000 178 193 216 942
-15.55249977 16.20974922 -0.21475001 178 193 216 917
-15.55150032 16.20874977 -0.21375000 130 142 166 917
-15.54899979 16.20599937 -0.20774999 130 142 166 800
-15.54800034 16.20499992 -0.20275000 103 117 143 800
-15.54975033 16.20675087 -0.20074999 103 117 143 714
-15.54749966 16.20450020 -0.19775000 103 117 143 814
-15.54625034 16.20325089 -0.19675000 103 117 143 857
-15.54949951 16.20650101 -0.19575000 103 117 143 821
-15.54699993 16.20400047 -0.19175000 98 117 147 814
-15.54650021 16.20325089 -0.18875000 98 117 147 875
-15.54650021 16.20325089 -0.18674999 98 117 147 964
-15.54275036 16.19949913 -0.17975000 104 125 156 957
-15.53999996 16.19675064 -0.17874999 104 125 156 896
-15.54049969 16.19725037 -0.17375000 110 127 155 914
-15.54024982 16.19675064 -0.16550000 107 121 147 914
-15.53625011 16.19274902 -0.16350000 107 121 147 860
-15.55774975 16.21649933 -0.23150000 164 181 201 2121
-15.55550003 16.21400070 -0.23050000 164 181 201 1753
-15.55574989 16.21425056 -0.22950000 164 181 201 1525
-15.55700016 16.21549988 -0.22849999 164 181 201 1367
-15.55599976 16.21450043 -0.22250000 178 193 216 910
-15.55550003 16.21400070 -0.21850000 178 193 216 985
-15.55175018 16.20999908 -0.21349999 130 142 166 882
-15.55424976 16.21274948 -0.21250001 130 142 166 864
-15.55224991 16.21075058 -0.20649999 130 142 166 789
-15.55000019 16.20825005 -0.20550001 130 142 166 760
-15.55000019 16.20825005 -0.20450000 103 117 143 814
-15.54675007 16.20499992 -0.20225000 103 117 143 760
-15.54724979 16.20549965 -0.19925000 103 117 143 775
-15.54724979 16.20549965 -0.19825000 103 117 143 814
-15.54599953 16.20400047 -0.19425000 98 117 147 889
-15.54749966 16.20574951 -0.19325000 98 117 147 800
-15.54249954 16.20050049 -0.18325000 104 125 156 807
-15.54174995 16.19974899 -0.18224999 104 125 156 860
-15.54199982 16.20000076 -0.18025000 104 125 156 950
-15.54349995 16.20149994 -0.17925000 104 125 156 921
-15.54150009 16.19924927 -0.17825000 104 125 156 935
-15.53874969 16.19650078 -0.16725001 110 127 155 867
-15.53649998 16.19400024 -0.16525000 107 121 147 860
-15.53549957 16.19300079 -0.16425000 107 121 147 792
-15.55500031 16.21500015 -0.22900000 146 163 183 1078
-15.55700016 16.21699905 -0.22800000 146 163 183 1032
-15.55525017 16.21525002 -0.22400001 146 163 183 821
-15.55599976 16.21599960 -0.22075000 135 147 169 835
-15.55025005 16.20999908 -0.21475001 135 147 169 889
-15.54949951 16.20924950 -0.21175000 121 132 154 814
-15.54874992 16.20849991 -0.21075000 121 132 154 842
-15.54899979 16.20874977 -0.20675001 121 132 154 782
-15.54899979 16.20874977 -0.20575000 121 132 154 828
-15.54699993 16.20675087 -0.19975001 108 123 146 860
-15.54549980 16.20499992 -0.19775000 108 123 146 850
-15.54699993 16.20650101 -0.19374999 99 120 147 835
-15.54475021 16.20425034 -0.19275001 99 120 147 821
-15.54325008 16.20249939 -0.19175000 99 120 147 835
-15.54450035 16.20400047 -0.19075000 99 120 147 828
-15.54349995 16.20299911 -0.18574999 117 138 165 921
-15.54174995 16.20100021 -0.18075000 117 138 165 821
-15.54224968 16.20174980 -0.17975000 117 138 165 928
-15.54049969 16.19974899 -0.17575000 127 144 170 853
-15.53874969 16.19824982 -0.17375000 127 144 170 828
-15.53849983 16.19775009 -0.17275000 127 144 170 903
-15.53699970 16.19625092 -0.17174999 127 144 170 889
-15.53775024 16.19700050 -0.16675000 123 139 162 800
-15.53600025 16.19524956 -0.16550000 123 139 162 814
-15.55525017 16.21674919 -0.22950000 146 163 183 875
-15.55649948 16.21800041 -0.22849999 146 163 183 821
-15.55700016 16.21850014 -0.22750001 146 163 183 917
-15.55375004 16.21500015 -0.22550000 146 163 183 925
-15.55550003 16.21699905 -0.22450000 146 163 183 857
-15.55224991 16.21350098 -0.22050001 135 147 169 928
-15.55074978 16.21199989 -0.21950001 135 147 169 842
-15.55150032 16.21274948 -0.21650000 135 147 169 882
-15.55274963 16.21425056 -0.21550000 135 147 169 789
-15.55025005 16.21150017 -0.21450000 135 147 169 828
-15.54775047 16.20899963 -0.20424999 108 123 146 782
-15.54524994 16.20650101 -0.20025000 108 123 146 875
-15.54500008 16.20599937 -0.19925000 108 123 146 821
-15.54625034 16.20725060 -0.19225000 99 120 147 860
-15.54224968 16.20325089 -0.18525000 117 138 165 989
-15.54075050 16.20174980 -0.18125001 117 138 165 921
-15.53674984 16.19750023 -0.17325000 127 144 170 889
-15.53874969 16.19949913 -0.17225000 127 144 170 882
-15.53575039 16.19650078 -0.16725001 127 144 170 767
-15.55249977 16.21549988 -0.22300000 135 147 169 882
-15.55350018 16.21649933 -0.21975000 135 147 169 942
-15.55099964 16.21375084 -0.21175000 121 132 154 882
-15.55049992 16.21350098 -0.21075000 121 132 154 842
-15.54899979 16.21175003 -0.20675001 121 132 154 782
-15.54749966 16.21025085 -0.20575000 121 132 154 917
-15.54150009 16.20400047 -0.19075000 99 120 147 853
-15.54249954 16.20499992 -0.18275000 117 138 165 914
-15.53674984 16.19874954 -0.17675000 117 138 165 807
-15.53674984 16.19899940 -0.17375000 127 144 170 846
-15.53874969 16.20100021 -0.17275000 127 144 170 882
-15.53649998 16.19874954 -0.17075001 127 144 170 853
-15.55249977 16.21674919 -0.22650000 146 163 183 675
-15.54975033 16.21400070 -0.21950001 135 147 169 910
-15.55200005 16.21624947 -0.21750000 135 147 169 875
-15.55074978 16.21500015 -0.21550000 135 147 169 850
-15.54949951 16.21375084 -0.21150000 121 132 154 867
-15.54899979 16.21299934 -0.21050000 121 132 154 864
-15.54599953 16.20999908 -0.20649999 121 132 154 828
-15.54425049 16.20800018 -0.20125000 108 123 146 857
-15.54650021 16.21050072 -0.19925000 108 123 146 842
-15.54224968 16.20624924 -0.19724999 108 123 146 775
-15.54450035 16.20849991 -0.19325000 99 120 147 921
-15.53950024 16.20299911 -0.18125001 117 138 165 800
-15.53725052 16.20100021 -0.17325000 127 144 170 903
-15.53474998 16.19824982 -0.17225000 127 144 170 860
-15.55200005 16.21775055 -0.22700000 146 163 183 707
-15.55000019 16.21574974 -0.22100000 135 147 169 875
-15.54800034 16.21375084 -0.21875000 135 147 169 903
-15.54699993 16.21274948 -0.21475001 135 147 169 842
-15.54625034 16.21199989 -0.20975000 121 132 154 842
-15.54749966 16.21299934 -0.20874999 121 132 154 896
-15.54625034 16.21199989 -0.20675001 121 132 154 821
-15.54500008 16.21050072 -0.20375000 108 123 146 896
-15.54524994 16.21075058 -0.20275000 108 123 146 942
-15.54349995 16.20899963 -0.19975001 108 123 146 821
-15.54425049 16.20974922 -0.19875000 108 123 146 882
-15.54249954 16.20800018 -0.19675000 108 123 146 928
-15.54174995 16.20700073 -0.19475000 99 120 147 814
-15.54199982 16.20725060 -0.19374999 99 120 147 875
-15.54224968 16.20775032 -0.18875000 99 120 147 910
-15.53849983 16.20350075 -0.18475001 117 138 165 860
-15.53849983 16.20375061 -0.18075000 117 138 165 835
-15.53775024 16.20299911 -0.17975000 117 138 165 789
-15.53600025 16.20100021 -0.17775001 117 138 165 821
-15.54724979 16.21400070 -0.21850000 135 147 169 835
-15.55000019 16.21699905 -0.21750000 135 147 169 850
-15.54675007 16.21375084 -0.21349999 121 132 154 782
-15.54899979 16.21599960 -0.21250001 121 132 154 842
-15.54675007 16.21350098 -0.21150000 121 132 154 857
-15.54825020 16.21525002 -0.21050000 121 132 154 835
-15.54775047 16.21475029 -0.20850000 121 132 154 896
-15.54524994 16.21199989 -0.20750000 121 132 154 910
-15.54549980 16.21224976 -0.20550001 121 132 154 896
-15.54475021 16.21150017 -0.20325001 108 123 146 950
-15.54450035 16.21125031 -0.20025000 108 123 146 821
-15.54524994 16.21199989 -0.19925000 108 123 146 753
-15.54199982 16.20874977 -0.19724999 108 123 146 796
-15.54374981 16.21025085 -0.19625001 108 123 146 857
-15.53849983 16.20499992 -0.19125000 99 120 147 814
-15.53849983 16.20499992 -0.18925001 99 120 147 889
-15.54024982 16.20700073 -0.18725000 99 120 147 860
-15.53925037 16.20574951 -0.18625000 99 120 147 775
-15.53400040 16.20050049 -0.17425001 127 144 170 828
-15.54850006 16.21699905 -0.21574999 135 147 169 789
-15.54650021 16.21475029 -0.21475001 135 147 169 767
-15.54275036 16.21100044 -0.20675001 121 132 154 964
-15.54425049 16.21249962 -0.20575000 121 132 154 903
-15.54425049 16.21224976 -0.20175000 108 123 146 828
-15.54049969 16.20874977 -0.20074999 108 123 146 814
-15.53874969 16.20675087 -0.19475000 99 120 147 875
-15.53849983 16.20624924 -0.19175000 99 120 147 821
-15.54075050 16.20874977 -0.19075000 99 120 147 814
-15.53874969 16.20675087 -0.18375000 117 138 165 889
-15.54724979 16.21699905 -0.21950001 135 147 169 600
-15.54125023 16.21075058 -0.20550001 121 132 154 889
-15.54100037 16.21050072 -0.20225000 108 123 146 896
-15.54150009 16.21125031 -0.19925000 108 123 146 807
-15.54024982 16.20974922 -0.19024999 99 120 147 821
-15.53874969 16.20825005 -0.18725000 99 120 147 867
-15.53474998 16.20400047 -0.18325000 117 138 165 903
-15.53549957 16.20475006 -0.17725000 117 138 165 660
-15.54549980 16.21649933 -0.21675000 135 147 169 557
-15.54724979 16.21825027 -0.21574999 135 147 169 675
-15.54500008 16.21599960 -0.20774999 121 132 154 875
-15.54174995 16.21274948 -0.20675001 121 132 154 800
-15.54075050 16.21175003 -0.20175000 108 123 146 957
-15.54024982 16.21100044 -0.19575000 108 123 146 857
-15.53625011 16.20700073 -0.18975000 99 120 147 807
-15.53849983 16.20949936 -0.18775000 99 120 147 842
-15.53775024 16.20849991 -0.18375000 117 138 165 760
-15.53450012 16.20499992 -0.18275000 117 138 165 792
-15.53725052 16.20800018 -0.18175000 117 138 165 760
-15.53625011 16.20700073 -0.17975000 117 138 165 692
-15.54224968 16.21475029 -0.20225000 119 134 153 800
-15.54249954 16.21500015 -0.20125000 119 134 153 889
-15.54049969 16.21299934 -0.19925000 119 134 153 796
-15.53800011 16.21050072 -0.19825000 119 134 153 800
-15.53874969 16.21100044 -0.19724999 119 134 153 867
-15.53824997 16.21075058 -0.19625001 119 134 153 828
-15.53800011 16.21025085 -0.19525000 122 144 165 835
-15.53674984 16.20924950 -0.19425000 122 144 165 867
-15.53824997 16.21050072 -0.19024999 122 144 165 792
-15.53674984 16.20899963 -0.18825001 122 144 165 842
-15.54349995 16.21750069 -0.21075000 125 138 155 675
-15.54174995 16.21574974 -0.20575000 125 138 155 775
-15.54199982 16.21599960 -0.20375000 119 134 153 789
-15.53925037 16.21324921 -0.20175000 119 134 153 882
-15.53975010 16.21375084 -0.19675000 119 134 153 867
-15.53899956 16.21299934 -0.19400001 122 144 165 910
-15.53524971 16.20899963 -0.19275001 122 144 165 903
-15.53775024 16.21150017 -0.19200000 122 144 165 889
-15.53750038 16.21150017 -0.19075000 122 144 165 835
-15.53725052 16.21100044 -0.18875000 122 144 165 850
-15.53425026 16.20800018 -0.18475001 154 179 201 632
