//X Y Z R G B Intensity
0.12549999 20.09749985 7.23000002 60 64 91 8785
0.12549999 20.09625053 7.23075008 60 64 91 12571
0.12549999 20.09575081 7.23474979 60 64 91 31742
0.12549999 20.09449959 7.23549986 60 64 91 34003
0.12549999 20.09449959 7.23649979 60 64 91 35385
0.12549999 20.09275055 7.24125004 101 103 128 32282
0.12549999 20.09199905 7.24300003 101 103 128 24621
0.12549999 20.09049988 7.24349976 101 103 128 19067
0.12549999 20.09049988 7.24574995 162 160 181 7707
0.12549999 20.08699989 7.25500011 109 106 123 1260
0.12549999 20.07175064 7.28574991 58 50 65 975
0.12675001 20.11524963 7.19049978 66 48 74 910
0.12650000 20.10199928 7.21974993 67 63 90 1296
0.12650000 20.09975052 7.22399998 53 53 79 1621
0.12650000 20.10000038 7.22525024 53 53 79 1728
0.12650000 20.09799957 7.22574997 53 53 79 1932
0.12650000 20.09700012 7.22749996 53 53 79 3003
0.12650000 20.09724998 7.22849989 60 64 91 3796
0.12650000 20.09650040 7.23050022 60 64 91 7060
0.12650000 20.09700012 7.23175001 60 64 91 11057
0.12650000 20.09625053 7.23350000 60 64 91 20864
0.12650000 20.09600067 7.23449993 60 64 91 26253
0.12650000 20.09524918 7.23624992 60 64 91 32389
0.12650000 20.09424973 7.23699999 101 103 128 33525
0.12650000 20.09375000 7.23799992 101 103 128 33410
0.12650000 20.09399986 7.23899984 101 103 128 32389
0.12650000 20.09149933 7.24249983 101 103 128 24557
0.12650000 20.09049988 7.24300003 101 103 128 18732
0.12650000 20.08925056 7.24574995 162 160 181 4671
0.12650000 20.08699989 7.25024986 162 160 181 1628
0.12650000 20.08699989 7.25250006 162 160 181 1360
0.12650000 20.07900047 7.27075005 62 58 73 1010
0.12750000 20.11300087 7.19325018 66 48 74 1071
0.12750000 20.11174965 7.19400024 66 48 74 1017
0.12750000 20.10849953 7.20550013 60 51 78 1096
0.12750000 20.09824944 7.22599983 53 53 79 1996
0.12750000 20.09749985 7.22774982 53 53 79 2367
0.12750000 20.09774971 7.22900009 60 64 91 2907
0.12750000 20.09600067 7.23175001 60 64 91 7657
0.12750000 20.09650040 7.23299980 60 64 91 11167
0.12750000 20.09474945 7.23649979 60 64 91 29582
0.12750000 20.09375000 7.23824978 101 103 128 31850
0.12750000 20.09300041 7.24025011 101 103 128 29764
0.12750000 20.09250069 7.24100018 101 103 128 26103
0.12750000 20.09099960 7.24275017 101 103 128 13807
0.12750000 20.09000015 7.24349976 101 103 128 9164
0.12750000 20.08975029 7.24424982 101 103 128 5721
0.12750000 20.09099960 7.24574995 162 160 181 3935
0.12750000 20.08900070 7.24725008 162 160 181 2260
0.12750000 20.08625031 7.25374985 109 106 123 1228
0.12750000 20.08550072 7.25775003 109 106 123 1171
0.12750000 20.07850075 7.27325010 62 58 73 1010
0.12725000 20.07225037 7.28600025 58 50 65 953
0.12850000 20.11524963 7.18725014 77 54 80 992
0.12850000 20.11400032 7.19199991 66 48 74 1096
0.12850000 20.10849953 7.20599985 60 51 78 1032
0.12850000 20.10350037 7.21374989 67 63 90 1153
0.12850000 20.10025024 7.22100019 53 53 79 1064
0.12850000 20.09899902 7.22599983 53 53 79 1689
0.12850000 20.09749985 7.22650003 53 53 79 1885
0.12850000 20.09675026 7.22849989 60 64 91 2217
0.12850000 20.09499931 7.23199987 60 64 91 7128
0.12850000 20.09550095 7.23325014 60 64 91 9614
0.12850000 20.09474945 7.23400021 60 64 91 14128
0.12850000 20.09499931 7.23525000 60 64 91 18478
0.12850000 20.09399986 7.23799992 101 103 128 29128
0.12850000 20.09225082 7.24149990 101 103 128 17589
0.12850000 20.09099960 7.24324989 101 103 128 7353
0.12850000 20.09000015 7.24599981 162 160 181 2703
0.12850000 20.08774948 7.24849987 162 160 181 1632
0.12850000 20.08250046 7.26249981 66 63 80 1096
0.12850000 20.08149910 7.26749992 66 63 80 1260
0.12850000 20.08024979 7.27024984 62 58 73 1075
0.12825000 20.07850075 7.27174997 62 58 73 985
0.12825000 20.07674980 7.27425003 62 58 73 1153
0.12950000 20.11574936 7.18575001 77 54 80 1235
0.12950000 20.10750008 7.20400000 60 51 78 928
0.12950000 20.09925079 7.22650003 53 53 79 1507
0.12950000 20.09650040 7.22975016 60 64 91 2521
0.12950000 20.09499931 7.23549986 60 64 91 15117
0.12950000 20.09499931 7.23649979 60 64 91 19696
0.12925000 20.09375000 7.23724985 101 103 128 23075
0.12925000 20.09300041 7.23899984 101 103 128 24064
0.12925000 20.09074974 7.24249983 101 103 128 6735
0.12925000 20.09074974 7.24574995 162 160 181 2617
0.12925000 20.08625031 7.25600004 109 106 123 1178
0.12925000 20.07500076 7.28049994 68 61 77 960
0.12925000 20.07250023 7.28600025 58 50 65 992
0.13050000 20.11499977 7.19024992 66 48 74 1057
0.13050000 20.11199951 7.19350004 66 48 74 1025
0.13050000 20.11300087 7.19474983 66 48 74 1107
0.13050000 20.11149979 7.19649982 54 40 66 1153
0.13050000 20.11000061 7.19799995 54 40 66 1007
0.13025001 20.09399986 7.23474979 60 64 91 8900
0.13025001 20.09074974 7.24200010 101 103 128 6875
0.13025001 20.09099960 7.24424982 101 103 128 3403
0.13025001 20.09000015 7.24499989 162 160 181 2507
0.13025001 20.07349968 7.28074980 68 61 77 1089
0.13124999 20.09700012 7.22774982 53 53 79 1685
0.13124999 20.09724998 7.23099995 60 64 91 2364
0.13124999 20.09625053 7.23175001 60 64 91 2560
0.13124999 20.09575081 7.23250008 60 64 91 3092
0.13124999 20.09474945 7.23549986 60 64 91 7764
0.13124999 20.09375000 7.23925018 101 103 128 14928
0.13124999 20.09174919 7.24200010 101 103 128 5457
0.13124999 20.08925056 7.24725008 162 160 181 1753
0.13124999 20.08074951 7.26749992 66 63 80 1214
0.13124999 20.07999992 7.27050018 62 58 73 1114
0.13124999 20.07649994 7.27775002 68 61 77 1064
0.13100000 20.07275009 7.28700018 58 50 65 1153
0.13225000 20.11549950 7.18625021 77 54 80 1482
0.13225000 20.11474991 7.19024992 66 48 74 878
0.13225000 20.10174942 7.21950006 67 63 90 1082
0.13225000 20.09550095 7.23425007 60 64 91 3700
0.13225000 20.09375000 7.23474979 60 64 91 4842
0.13225000 20.09325027 7.23675013 101 103 128 10903
0.13225000 20.09399986 7.23799992 101 103 128 13628
0.13225000 20.09350014 7.23999977 101 103 128 13032
0.13225000 20.09199905 7.24149990 101 103 128 6617
0.13225000 20.09099960 7.24550009 162 160 181 2478
0.13225000 20.08900070 7.24574995 162 160 181 2228
0.13225000 20.08850098 7.24875021 162 160 181 1689
0.13225000 20.08799934 7.25075006 162 160 181 1385
0.13225000 20.08600044 7.25524998 109 106 123 1096
0.13200000 20.07200050 7.28424978 68 61 77 1121
0.13200000 20.07250023 7.28550005 58 50 65 1082
0.13200000 20.06974983 7.29075003 58 50 65 1460
0.13200000 20.06900024 7.29174995 58 50 65 1367
0.13200000 20.06875038 7.29250002 58 50 65 1317
0.13325000 20.11174965 7.19700003 54 40 66 1042
0.13325000 20.10924911 7.20050001 54 40 66 760
0.13325000 20.10524940 7.21175003 60 51 78 1025
0.13325000 20.10400009 7.21250010 67 63 90 1014
0.13325000 20.10350037 7.21325016 67 63 90 1000
0.13325000 20.10224915 7.21700001 67 63 90 975
0.13325000 20.10149956 7.21974993 67 63 90 1239
0.13325000 20.09874916 7.22525024 53 53 79 1196
0.13325000 20.09625053 7.22949982 60 64 91 1696
0.13300000 20.09375000 7.23525000 60 64 91 6514
0.13300000 20.09350014 7.23724985 101 103 128 15435
0.13300000 20.09300041 7.23799992 101 103 128 18092
0.13300000 20.09350014 7.23925018 101 103 128 17692
0.13300000 20.09325027 7.24025011 101 103 128 13985
0.13300000 20.09199905 7.24074984 101 103 128 10496
0.13300000 20.09099960 7.24375010 101 103 128 3553
0.13300000 20.09025002 7.24450016 101 103 128 2875
0.13300000 20.09049988 7.24550009 162 160 181 2507
0.13300000 20.08875084 7.24599981 162 160 181 2217
0.13300000 20.08149910 7.26275015 66 63 80 1239
0.13300000 20.08124924 7.26475000 66 63 80 1132
0.13300000 20.08024979 7.26650000 66 63 80 1100
0.13300000 20.07225037 7.28674984 58 50 65 1203
0.13300000 20.07074928 7.28849983 58 50 65 1239
0.13425000 20.10950089 7.20200014 60 45 68 960
0.13425000 20.10950089 7.20324993 60 45 68 1146
0.13400000 20.10074997 7.21925020 72 64 88 1310
0.13400000 20.09650040 7.23150015 80 80 104 1857
0.13400000 20.09449959 7.23600006 80 80 104 11250
0.13400000 20.09325027 7.23675013 133 134 155 18339
0.13400000 20.09399986 7.23799992 133 134 155 22910
0.13400000 20.09300041 7.23874998 133 134 155 24189
0.13400000 20.09199905 7.24049997 133 134 155 17957
0.13400000 20.09174919 7.24149990 133 134 155 12500
0.13400000 20.09199905 7.24249983 133 134 155 9317
0.13400000 20.09000015 7.24599981 184 182 203 2592
0.13400000 20.08625031 7.25549984 140 137 156 1317
0.13400000 20.08424950 7.26100016 140 137 156 1375
0.13400000 20.07674980 7.27649975 76 72 89 1114
0.13500001 20.11050034 7.19974995 60 45 68 878
0.13500001 20.10950089 7.20149994 60 45 68 878
0.13500001 20.10224915 7.21899986 72 64 88 1228
0.13500001 20.10025024 7.22049999 60 56 79 1310
0.13500001 20.09874916 7.22300005 60 56 79 1285
0.13500001 20.09749985 7.22900009 80 80 104 1603
0.13500001 20.09524918 7.23150015 80 80 104 1957
0.13500001 20.09650040 7.23299980 80 80 104 2364
0.13500001 20.09499931 7.23449993 80 80 104 5957
0.13500001 20.09325027 7.23600006 80 80 104 17089
0.13500001 20.09225082 7.23874998 133 134 155 28346
0.13500001 20.09300041 7.24025011 133 134 155 24946
0.13500001 20.09174919 7.24074984 133 134 155 19903
0.13500001 20.09074974 7.24249983 133 134 155 10978
0.13500001 20.09049988 7.24349976 133 134 155 7435
0.13500001 20.08950043 7.24525023 184 182 203 3675
0.13500001 20.08875084 7.24599981 184 182 203 2875
0.13500001 20.08250046 7.26100016 94 91 110 1196
0.13500001 20.07999992 7.26749992 94 91 110 1157
0.13500001 20.07900047 7.26924992 76 72 89 1157
0.13500001 20.07600021 7.27775002 69 62 80 942
0.13474999 20.07399940 7.28224993 69 62 80 950
0.13600001 20.11350060 7.19175005 65 46 68 885
0.13600001 20.11199951 7.19449997 65 46 68 903
0.13600001 20.10424995 7.21199989 72 64 88 1114
0.13600001 20.09575081 7.23325014 80 80 104 4607
0.13600001 20.09449959 7.23699999 133 134 155 28521
0.13600001 20.09325027 7.23874998 133 134 155 32832
0.13600001 20.09225082 7.23950005 133 134 155 30428
0.13600001 20.09250069 7.24049997 133 134 155 28185
0.13600001 20.09099960 7.24324989 133 134 155 15332
0.13600001 20.08925056 7.24674988 184 182 203 3496
0.13575000 20.08474922 7.25799990 140 137 156 1260
0.13575000 20.08325005 7.26175022 94 91 110 1182
0.13575000 20.08200073 7.26350021 94 91 110 1064
0.13575000 20.07925034 7.27199984 76 72 89 1146
0.13575000 20.07275009 7.28450012 69 62 80 1132
0.13575000 20.07049942 7.28800011 60 51 68 1246
0.13699999 20.11199951 7.19400024 65 46 68 942
0.13699999 20.10650063 7.20800018 70 58 82 1050
0.13699999 20.10199928 7.21999979 72 64 88 1139
0.13699999 20.09799957 7.22499990 60 56 79 1435
0.13699999 20.09675026 7.22774982 60 56 79 1492
0.13699999 20.09799957 7.22924995 80 80 104 1646
0.13675000 20.09375000 7.23624992 80 80 104 29217
0.13699999 20.09449959 7.23750019 133 134 155 33646
0.13675000 20.09399986 7.23824978 133 134 155 34746
0.13675000 20.09275055 7.23999977 133 134 155 31532
0.13675000 20.09250069 7.24100018 133 134 155 29578
0.13675000 20.09124947 7.24275017 133 134 155 22692
0.13675000 20.09099960 7.24375010 133 134 155 16967
0.13675000 20.08925056 7.24525023 184 182 203 8510
0.13675000 20.08875084 7.24700022 184 182 203 3707
0.13675000 20.08875084 7.25024986 184 182 203 1857
0.13675000 20.08699989 7.25299978 140 137 156 1400
0.13675000 20.08374977 7.26025009 140 137 156 1164
0.13675000 20.08325005 7.26224995 94 91 110 1089
0.13675000 20.08149910 7.26475000 94 91 110 1025
0.13675000 20.08024979 7.26550007 94 91 110 1107
0.13675000 20.07825089 7.27225018 76 72 89 1146
0.13675000 20.07349968 7.28200006 69 62 80 967
0.13675000 20.07399940 7.28324986 69 62 80 1067
0.13800000 20.11224937 7.19250011 65 46 68 935
0.13800000 20.10975075 7.20100021 60 45 68 1017
0.13800000 20.10849953 7.20174980 60 45 68 967
0.13800000 20.10199928 7.21549988 72 64 88 1203
0.13800000 20.10300064 7.21675014 72 64 88 1146
0.13800000 20.10000038 7.22324991 60 56 79 1325
0.13775000 20.09749985 7.22975016 80 80 104 2110
0.13775000 20.09399986 7.23374987 80 80 104 20239
0.13775000 20.09424973 7.23600006 80 80 104 31121
0.13775000 20.09275055 7.23750019 133 134 155 35257
0.13775000 20.09275055 7.23850012 133 134 155 35000
0.13775000 20.09199905 7.24049997 133 134 155 31532
0.13775000 20.09250069 7.24174976 133 134 155 30525
0.13775000 20.09000015 7.24300003 133 134 155 23650
0.13775000 20.09049988 7.24424982 133 134 155 19535
0.13775000 20.08975029 7.24499989 184 182 203 13964
0.13775000 20.08799934 7.24749994 184 182 203 4364
0.13775000 20.08875084 7.24875021 184 182 203 2996
0.13775000 20.08499908 7.25600004 140 137 156 1350
0.13775000 20.08250046 7.26375008 94 91 110 1139
0.13775000 20.07299995 7.28275013 69 62 80 1042
0.13775000 20.07250023 7.28550005 60 51 68 1171
0.13900000 20.11100006 7.19675016 60 45 68 950
0.13900000 20.11025047 7.20074987 60 45 68 992
0.13900000 20.10924911 7.20149994 60 45 68 1042
0.13875000 20.10350037 7.21425009 72 64 88 1235
0.13875000 20.09975052 7.22224998 60 56 79 1417
0.13875000 20.09749985 7.22800016 60 56 79 1857
0.13875000 20.09550095 7.23150015 80 80 104 10675
0.13875000 20.09350014 7.23600006 80 80 104 34371
0.13875000 20.09325027 7.23699999 133 134 155 35125
0.13875000 20.09250069 7.23874998 133 134 155 34371
0.13875000 20.09074974 7.24149990 133 134 155 31217
0.13875000 20.09049988 7.24249983 133 134 155 30235
0.13875000 20.09099960 7.24475002 133 134 155 22014
0.13875000 20.08900070 7.24499989 184 182 203 17089
0.13875000 20.08975029 7.24625015 184 182 203 12000
0.13875000 20.08925056 7.24725008 184 182 203 8228
0.13875000 20.08799934 7.24800014 184 182 203 5400
0.13875000 20.08699989 7.24975014 184 182 203 2864
0.13875000 20.08200073 7.26499987 94 91 110 1067
0.13875000 20.08099937 7.26674986 94 91 110 1239
0.13875000 20.07875061 7.27250004 76 72 89 1114
0.13975000 20.11425018 7.19099998 65 46 68 967
0.13975000 20.11149979 7.19649982 60 45 68 846
0.13975000 20.10874939 7.20074987 60 45 68 957
0.13975000 20.10400009 7.21500015 72 64 88 1121
0.13975000 20.10149956 7.21850014 72 64 88 1164
0.13975000 20.09975052 7.22525024 60 56 79 1564
0.13975000 20.09550095 7.23024988 80 80 104 6571
0.13975000 20.09625053 7.23250008 80 80 104 19696
0.13975000 20.09600067 7.23350000 80 80 104 26842
0.13975000 20.09424973 7.23374987 80 80 104 31221
0.13975000 20.09499931 7.23525000 80 80 104 33764
0.13975000 20.09375000 7.23575020 80 80 104 34746
0.13975000 20.09350014 7.23675013 133 134 155 35125
0.13975000 20.09250069 7.23850012 133 134 155 35785
0.13975000 20.09149933 7.24025011 133 134 155 34003
0.13975000 20.09174919 7.24125004 133 134 155 34492
0.13975000 20.09074974 7.24200010 133 134 155 33642
0.13975000 20.09049988 7.24300003 133 134 155 32492
0.13975000 20.08975029 7.24499989 184 182 203 24878
0.13975000 20.08875084 7.24774981 184 182 203 10192
0.13975000 20.08850098 7.24875021 184 182 203 6825
0.13950001 20.07225037 7.28649998 60 51 68 1017
0.14075001 20.11924934 7.18050003 75 51 73 1464
0.14075001 20.11174965 7.19700003 60 45 68 875
0.14075001 20.11025047 7.19750023 60 45 68 910
0.14075001 20.10874939 7.20025015 60 45 68 917
0.14075001 20.09650040 7.22975016 80 80 104 9217
0.14075001 20.09700012 7.23099995 80 80 104 16360
0.14075001 20.09625053 7.23175001 80 80 104 24250
0.14075001 20.09449959 7.23425007 80 80 104 35785
0.14075001 20.09375000 7.23525000 80 80 104 34242
0.14075001 20.09449959 7.23649979 80 80 104 35521
0.14075001 20.09199905 7.23974991 133 134 155 36189
0.14049999 20.09099960 7.24149990 133 134 155 36467
0.14049999 20.09174919 7.24275017 133 134 155 36057
0.14049999 20.09149933 7.24375010 133 134 155 34371
0.14049999 20.09074974 7.24475002 133 134 155 31017
0.14049999 20.09025002 7.24550009 184 182 203 27614
0.14049999 20.08975029 7.24650002 184 182 203 22857
0.14049999 20.08950043 7.24749994 184 182 203 17303
0.14049999 20.08950043 7.24849987 184 182 203 11428
0.14049999 20.08724976 7.25099993 184 182 203 3846
0.14049999 20.08200073 7.26175022 94 91 110 1042
0.14049999 20.08250046 7.26399994 94 91 110 1171
0.14049999 20.07950020 7.26824999 94 91 110 1260
0.14049999 20.07749939 7.27299976 76 72 89 1189
0.14049999 20.07575035 7.27874994 69 62 80 982
0.14049999 20.07049942 7.28725004 60 51 68 985
0.14174999 20.11025047 7.19799995 60 45 68 950
0.14174999 20.10849953 7.20174980 60 45 68 885
0.14174999 20.10650063 7.20550013 70 58 82 985
0.14174999 20.10474968 7.21099997 70 58 82 1235
0.14150000 20.09799957 7.22475004 60 56 79 1799
0.14150000 20.09675026 7.22749996 60 56 79 3003
0.14150000 20.09675026 7.22949982 80 80 104 10325
0.14150000 20.09650040 7.23150015 80 80 104 24621
0.14150000 20.09524918 7.23199987 80 80 104 30239
0.14150000 20.09325027 7.23549986 80 80 104 33642
0.14150000 20.09325027 7.23649979 133 134 155 34003
0.14150000 20.09325027 7.23775005 133 134 155 35385
0.14150000 20.09199905 7.23824978 133 134 155 35917
0.14150000 20.09174919 7.23925018 133 134 155 36467
0.14150000 20.09174919 7.24249983 133 134 155 37471
0.14150000 20.08950043 7.24375010 133 134 155 34489
0.14150000 20.09049988 7.24525023 184 182 203 32832
0.14150000 20.08900070 7.24674988 184 182 203 25074
0.14150000 20.08875084 7.24800014 184 182 203 19696
0.14150000 20.08824921 7.24975014 184 182 203 10032
0.14150000 20.08799934 7.25075006 184 182 203 6617
0.14150000 20.08550072 7.25524998 140 137 156 1850
0.14150000 20.08474922 7.25799990 140 137 156 1417
0.14150000 20.07749939 7.27374983 76 72 89 1235
0.14150000 20.07550049 7.27925014 69 62 80 1000
0.14150000 20.07449913 7.28000021 69 62 80 1100
0.14150000 20.07275009 7.28350019 69 62 80 1017
0.14250000 20.10149956 7.21974993 63 54 75 1417
0.14250000 20.09774971 7.22800016 75 70 90 7028
0.14250000 20.09650040 7.22875023 133 131 152 12403
0.14250000 20.09675026 7.23000002 133 131 152 20071
0.14250000 20.09575081 7.23175001 133 131 152 30925
0.14250000 20.09474945 7.23225021 133 131 152 33171
0.14250000 20.09424973 7.23425007 133 131 152 35257
0.14250000 20.09424973 7.23525000 133 131 152 34871
0.14250000 20.09474945 7.23649979 133 131 152 33525
0.14250000 20.09375000 7.23724985 202 200 221 34125
0.14250000 20.09399986 7.23824978 202 200 221 35000
0.14250000 20.09250069 7.23999977 202 200 221 38525
0.14250000 20.09099960 7.24149990 202 200 221 38996
0.14250000 20.09124947 7.24275017 202 200 221 38682
0.14250000 20.09074974 7.24375010 202 200 221 37325
0.14250000 20.09099960 7.24475002 202 200 221 34746
0.14250000 20.08900070 7.24625015 214 212 233 29214
0.14250000 20.08925056 7.24749994 214 212 233 25274
0.14250000 20.08850098 7.25024986 214 212 233 11467
0.14250000 20.08774948 7.25124979 214 212 233 7903
0.14250000 20.08650017 7.25299978 199 198 216 3692
0.14250000 20.08499908 7.25650024 199 198 216 1810
0.14250000 20.07699966 7.27600002 96 93 112 1253
0.14375000 20.11174965 7.19325018 80 58 79 1017
0.14375000 20.11000061 7.19700003 78 60 82 967
0.14375000 20.11050034 7.19824982 78 60 82 967
0.14350000 20.09749985 7.22550011 75 70 90 2875
0.14350000 20.09749985 7.22975016 133 131 152 23075
0.14350000 20.09675026 7.23050022 133 131 152 28267
0.14350000 20.09499931 7.23199987 133 131 152 32064
0.14350000 20.09449959 7.23274994 133 131 152 34125
0.14350000 20.09474945 7.23500013 133 131 152 35385
0.14350000 20.09300041 7.23649979 202 200 221 34617
0.14350000 20.09225082 7.23850012 202 200 221 36189
0.14350000 20.09225082 7.23950005 202 200 221 37471
0.14350000 20.09199905 7.24249983 202 200 221 38842
0.14350000 20.09074974 7.24424982 202 200 221 34492
0.14350000 20.08975029 7.24599981 214 212 233 32064
0.14350000 20.08749962 7.24949980 214 212 233 20110
0.14350000 20.08499908 7.25400019 199 198 216 3464
0.14350000 20.08424950 7.25874996 199 198 216 1400
0.14350000 20.07950020 7.27099991 96 93 112 1125
0.14350000 20.07749939 7.27575016 96 93 112 1235
0.14350000 20.07299995 7.28149986 63 58 78 1067
0.14450000 20.11249924 7.19299984 80 58 79 917
0.14450000 20.11025047 7.19649982 78 60 82 1203
0.14450000 20.10149956 7.21649981 63 54 75 1296
0.14450000 20.10149956 7.21775007 63 54 75 1375
0.14450000 20.10199928 7.21999979 63 54 75 1557
0.14450000 20.09950066 7.22450018 75 70 90 2167
0.14450000 20.09774971 7.22700024 75 70 90 9646
0.14450000 20.09724998 7.22800016 75 70 90 16057
0.14450000 20.09600067 7.23075008 133 131 152 30821
0.14450000 20.09575081 7.23274994 133 131 152 33764
0.14450000 20.09424973 7.23325014 133 131 152 33642
0.14450000 20.09550095 7.23474979 133 131 152 35003
0.14450000 20.09375000 7.23724985 202 200 221 34125
0.14450000 20.09375000 7.23824978 202 200 221 35785
0.14450000 20.09300041 7.23899984 202 200 221 36057
0.14450000 20.09225082 7.23974991 202 200 221 37764
0.14450000 20.09149933 7.24074984 202 200 221 37760
0.14450000 20.09074974 7.24349976 202 200 221 35917
0.14450000 20.09000015 7.24550009 214 212 233 33764
0.14450000 20.08975029 7.24650002 214 212 233 33642
0.14425001 20.08850098 7.24700022 214 212 233 33171
0.14425001 20.08650017 7.25075006 214 212 233 16246
0.14425001 20.08699989 7.25199986 214 212 233 11942
0.14425001 20.08625031 7.25374985 199 198 216 5350
0.14425001 20.08275032 7.26300001 154 153 171 1546
0.14425001 20.07950020 7.27050018 96 93 112 1182
0.14425001 20.07500076 7.28149986 63 58 78 1096
0.14550000 20.10675049 7.20650005 70 57 77 925
0.14550000 20.10025024 7.21999979 75 70 90 1660
0.14550000 20.09899902 7.22499990 75 70 90 4925
0.14550000 20.09774971 7.22674990 75 70 90 14092
0.14550000 20.09749985 7.22774982 75 70 90 21375
0.14550000 20.09749985 7.22975016 133 131 152 30825
0.14524999 20.09625053 7.23024988 133 131 152 32610
0.14524999 20.09499931 7.23099995 133 131 152 33521
0.14524999 20.09449959 7.23600006 133 131 152 35128
0.14524999 20.09350014 7.23675013 202 200 221 35260
0.14524999 20.09350014 7.23775005 202 200 221 34871
0.14524999 20.09225082 7.23824978 202 200 221 35917
0.14524999 20.09174919 7.23925018 202 200 221 35782
0.14524999 20.09074974 7.24324989 202 200 221 37178
0.14524999 20.08975029 7.24700022 214 212 233 33407
0.14524999 20.08875084 7.24774981 214 212 233 32385
0.14524999 20.08774948 7.24849987 214 212 233 30717
0.14524999 20.08799934 7.24975014 214 212 233 27296
0.14524999 20.08724976 7.25050020 214 212 233 22964
0.14524999 20.08724976 7.25150013 214 212 233 17957
0.14524999 20.08650017 7.25225019 214 212 233 13703
0.14524999 20.08625031 7.25425005 199 198 216 6792
0.14524999 20.08349991 7.25974989 199 198 216 1717
0.14524999 20.08349991 7.26074982 199 198 216 1621
0.14524999 20.07374954 7.28074980 63 58 78 1132
0.14650001 20.11174965 7.19500017 80 58 79 1114
0.14624999 20.10199928 7.21575022 63 54 75 1378
0.14624999 20.09950066 7.22125006 75 70 90 1932
0.14624999 20.09874916 7.22725010 75 70 90 20953
0.14624999 20.09724998 7.23000002 133 131 152 33410
0.14624999 20.09474945 7.23225021 133 131 152 35917
0.14624999 20.09449959 7.23325014 133 131 152 36610
0.14624999 20.09474945 7.23549986 133 131 152 37764
0.14624999 20.09350014 7.23600006 133 131 152 36889
0.14624999 20.09325027 7.23699999 202 200 221 36189
0.14624999 20.09325027 7.23899984 202 200 221 35385
0.14624999 20.09250069 7.23999977 202 200 221 35125
0.14624999 20.09174919 7.24300003 202 200 221 39000
0.14624999 20.09124947 7.24375010 202 200 221 38067
0.14624999 20.08850098 7.24599981 214 212 233 34867
0.14624999 20.08950043 7.24749994 214 212 233 33171
0.14624999 20.08875084 7.24949980 214 212 233 30239
0.14624999 20.08799934 7.25124979 214 212 233 24435
0.14624999 20.08724976 7.25299978 199 198 216 15503
0.14624999 20.08525085 7.25449991 199 198 216 7717
0.14624999 20.08399963 7.26025009 199 198 216 1792
0.14624999 20.08250046 7.26074982 154 153 171 1646
0.14624999 20.08325005 7.26224995 154 153 171 1525
0.14624999 20.08149910 7.26475000 154 153 171 1457
0.14624999 20.07424927 7.28025007 63 58 78 1107
0.14600000 20.07074928 7.28625011 64 57 75 1132
0.14725000 20.10799980 7.20375013 70 57 77 1025
0.14725000 20.09950066 7.22100019 75 70 90 1939
0.14725000 20.09849930 7.22499990 75 70 90 13014
0.14725000 20.09724998 7.22749996 75 70 90 31432
0.14725000 20.09724998 7.22849989 133 131 152 34875
0.14725000 20.09600067 7.23124981 133 131 152 37471
0.14725000 20.09600067 7.23350000 133 131 152 37328
0.14725000 20.09499931 7.23400021 133 131 152 36332
0.14725000 20.09399986 7.23474979 133 131 152 37617
0.14725000 20.09424973 7.23600006 133 131 152 38221
0.14725000 20.09375000 7.23675013 202 200 221 36610
0.14725000 20.09300041 7.23850012 202 200 221 33882
0.14725000 20.09325027 7.23974991 202 200 221 34125
0.14725000 20.09250069 7.24074984 202 200 221 35000
0.14725000 20.09225082 7.24174976 202 200 221 37182
0.14725000 20.09049988 7.24324989 202 200 221 39478
0.14725000 20.09049988 7.24424982 202 200 221 38682
0.14725000 20.09000015 7.24499989 214 212 233 37178
0.14725000 20.08850098 7.24875021 214 212 233 31846
0.14725000 20.08699989 7.24924994 214 212 233 31217
0.14725000 20.08675003 7.25024986 214 212 233 30921
0.14725000 20.08774948 7.25174999 214 212 233 28949
0.14725000 20.08499908 7.25374985 199 198 216 16553
0.14725000 20.08550072 7.25500011 199 198 216 11396
0.14725000 20.08525085 7.25600004 199 198 216 7725
0.14725000 20.08499908 7.25799990 199 198 216 3632
0.14725000 20.08424950 7.25874996 199 198 216 2589
0.14700000 20.08374977 7.26074982 199 198 216 1875
0.14700000 20.08349991 7.26175022 154 153 171 1671
0.14700000 20.08024979 7.26499987 154 153 171 1410
0.14700000 20.07925034 7.26774979 154 153 171 1221
0.14700000 20.07950020 7.27099991 96 93 112 1157
0.14700000 20.07749939 7.27250004 96 93 112 1057
0.14825000 20.11300087 7.19325018 80 58 79 992
0.14825000 20.11124992 7.19675016 78 60 82 957
0.14825000 20.11025047 7.19850016 78 60 82 1000
0.14825000 20.10975075 7.20050001 78 60 82 1107
0.14825000 20.10725021 7.20699978 70 57 77 1171
0.14825000 20.10700035 7.20800018 70 57 77 1185
0.14825000 20.10650063 7.20900011 70 57 77 1278
0.14825000 20.10025024 7.22049999 75 70 90 2153
0.14825000 20.09925079 7.22424984 75 70 90 15385
0.14825000 20.09849930 7.22525024 75 70 90 22535
0.14825000 20.09749985 7.22900009 133 131 152 36610
0.14825000 20.09650040 7.23175001 133 131 152 35921
0.14825000 20.09499931 7.23350000 133 131 152 36750
0.14825000 20.09375000 7.23400021 133 131 152 37614
0.14825000 20.09449959 7.23525000 133 131 152 37764
0.14825000 20.09300041 7.23575020 133 131 152 37178
0.14825000 20.09300041 7.23799992 202 200 221 33292
0.14825000 20.09124947 7.24049997 202 200 221 36746
0.14825000 20.09225082 7.24200010 202 200 221 37617
0.14825000 20.09000015 7.24324989 202 200 221 37178
0.14825000 20.09000015 7.24550009 214 212 233 35000
0.14825000 20.08975029 7.24650002 214 212 233 33642
0.14825000 20.08850098 7.24825001 214 212 233 32828
0.14825000 20.08799934 7.24900007 214 212 233 33407
0.14825000 20.08724976 7.24975014 214 212 233 33289
0.14825000 20.08675003 7.25075006 214 212 233 32721
0.14825000 20.08724976 7.25199986 214 212 233 31846
0.14825000 20.08699989 7.25299978 199 198 216 28264
0.14800000 20.08499908 7.25425005 199 198 216 18621
0.14800000 20.08300018 7.26224995 154 153 171 1753
0.14800000 20.07850075 7.27225018 96 93 112 1067
0.14925000 20.09874916 7.22275019 75 70 90 10578
0.14925000 20.09975052 7.22424984 75 70 90 16850
0.14925000 20.09874916 7.22499990 75 70 90 23767
0.14925000 20.09774971 7.22550011 75 70 90 29764
0.14925000 20.09849930 7.22700024 75 70 90 32725
0.14925000 20.09675026 7.22725010 75 70 90 35000
0.14925000 20.09625053 7.23024988 133 131 152 35260
0.14925000 20.09575081 7.23124981 133 131 152 35000
0.14925000 20.09524918 7.23199987 133 131 152 35260
0.14925000 20.09474945 7.23274994 133 131 152 35385
0.14925000 20.09424973 7.23474979 133 131 152 37182
0.14925000 20.09424973 7.23600006 133 131 152 36610
0.14925000 20.09275055 7.23649979 202 200 221 34121
0.14925000 20.09375000 7.23775005 202 200 221 33642
0.14900000 20.09275055 7.23950005 202 200 221 35125
0.14900000 20.09225082 7.24049997 202 200 221 35653
0.14900000 20.09199905 7.24149990 202 200 221 36889
0.14900000 20.09099960 7.24224997 202 200 221 36889
0.14900000 20.09074974 7.24324989 202 200 221 36610
0.14900000 20.09000015 7.24525023 214 212 233 35257
0.14900000 20.08900070 7.24700022 214 212 233 34617
0.14900000 20.08900070 7.24800014 214 212 233 34371
0.14900000 20.08724976 7.24849987 214 212 233 34489
0.14900000 20.08850098 7.25000000 214 212 233 34871
0.14900000 20.08724976 7.25050020 214 212 233 34121
0.14900000 20.08575058 7.25199986 214 212 233 31735
0.14900000 20.08525085 7.25500011 199 198 216 21614
0.14900000 20.08499908 7.25600004 199 198 216 16614
0.14900000 20.08474922 7.25699997 199 198 216 11789
0.14900000 20.08349991 7.25750017 199 198 216 7667
0.14900000 20.08325005 7.25850010 199 198 216 5271
0.14900000 20.08225060 7.26350021 154 153 171 1539
0.14900000 20.08049965 7.26824999 154 153 171 1271
0.14900000 20.07950020 7.27024984 96 93 112 1310
0.14900000 20.07674980 7.27425003 96 93 112 1082
0.15000001 20.10400009 7.21224976 63 54 75 1317
0.15000001 20.10325050 7.21624994 63 54 75 1539
0.15000001 20.10000038 7.22249985 75 70 90 11428
0.15000001 20.09774971 7.22599983 75 70 90 31532
0.15000001 20.09749985 7.22700024 75 70 90 32946
0.15000001 20.09824944 7.22825003 75 70 90 34246
0.15000001 20.09749985 7.22900009 133 131 152 33764
0.15000001 20.09600067 7.22949982 133 131 152 34242
0.15000001 20.09650040 7.23075008 133 131 152 34746
0.15000001 20.09499931 7.23225021 133 131 152 35000
0.15000001 20.09449959 7.23325014 133 131 152 36189
0.15000001 20.09449959 7.23525000 133 131 152 35785
0.15000001 20.09399986 7.23624992 133 131 152 33764
0.15000001 20.09325027 7.23699999 202 200 221 33642
0.15000001 20.09375000 7.23824978 202 200 221 34246
0.15000001 20.09049988 7.24149990 202 200 221 37760
0.15000001 20.09049988 7.24249983 202 200 221 36057
0.15000001 20.09074974 7.24375010 202 200 221 36057
0.15000001 20.09074974 7.24475002 214 212 233 35917
0.15000001 20.09025002 7.24574995 214 212 233 35517
0.15000001 20.08925056 7.24650002 214 212 233 35517
0.15000001 20.08824921 7.24725008 214 212 233 35650
0.15000001 20.08925056 7.24849987 214 212 233 35785
0.15000001 20.08724976 7.24900007 214 212 233 35382
0.15000001 20.08774948 7.25124979 214 212 233 34003
0.15000001 20.08675003 7.25299978 199 198 216 31217
0.15000001 20.08575058 7.25349998 199 198 216 30332
0.15000001 20.08474922 7.25425005 199 198 216 28435
0.15000001 20.08449936 7.25524998 199 198 216 24492
0.15000001 20.08550072 7.25675011 199 198 216 19739
0.15000001 20.08349991 7.25699997 199 198 216 14317
0.15000001 20.07975006 7.26949978 96 93 112 1328
0.15000001 20.07724953 7.27500010 96 93 112 1125
0.15000001 20.07275009 7.28175020 63 58 78 1064
0.15125000 20.11149979 7.19325018 85 64 81 992
0.15125000 20.10725021 7.20450020 61 46 65 1228
0.15125000 20.10725021 7.20550013 61 46 65 1157
0.15125000 20.10625076 7.20849991 61 46 65 1196
0.15099999 20.10300064 7.21700001 71 59 79 1753
0.15099999 20.10025024 7.22125006 114 107 125 8803
0.15099999 20.09925079 7.22200012 114 107 125 15214
0.15099999 20.09749985 7.22674990 114 107 125 32725
0.15099999 20.09824944 7.22800016 114 107 125 34621
0.15099999 20.09650040 7.22949982 170 165 185 34871
0.15099999 20.09575081 7.23124981 170 165 185 33882
0.15099999 20.09474945 7.23199987 170 165 185 34996
0.15099999 20.09499931 7.23299980 170 165 185 35260
0.15099999 20.09550095 7.23425007 170 165 185 35789
0.15099999 20.09375000 7.23575020 170 165 185 34125
0.15099999 20.09225082 7.23950005 211 208 227 36889
0.15099999 20.09199905 7.24049997 211 208 227 38067
0.15099999 20.09149933 7.24125004 211 208 227 37617
0.15099999 20.09049988 7.24200010 211 208 227 36607
0.15099999 20.08975029 7.24399996 211 208 227 36189
0.15099999 20.08850098 7.24674988 199 200 220 37614
0.15099999 20.08925056 7.24800014 199 200 220 37178
0.15099999 20.08824921 7.24975014 199 200 220 35785
0.15099999 20.08749962 7.25050020 199 200 220 35517
0.15099999 20.08575058 7.25299978 209 210 230 33517
0.15099999 20.08575058 7.25425005 209 210 230 32828
0.15099999 20.08449936 7.25475025 209 210 230 31424
0.15099999 20.08474922 7.25575018 209 210 230 27528
0.15099999 20.08250046 7.25950003 209 210 230 9203
0.15099999 20.08200073 7.26450014 188 189 209 1882
0.15099999 20.07799911 7.26949978 130 128 149 1235
0.15099999 20.07649994 7.27325010 130 128 149 1025
0.15099999 20.07550049 7.27699995 130 128 149 1139
0.15200000 20.10250092 7.21600008 71 59 79 1660
0.15200000 20.10174942 7.21875000 71 59 79 3085
0.15200000 20.10149956 7.21974993 71 59 79 5292
0.15200000 20.10099983 7.22074986 114 107 125 9357
0.15200000 20.09824944 7.22399998 114 107 125 30239
0.15200000 20.09849930 7.22525024 114 107 125 31532
0.15200000 20.09849930 7.22725010 114 107 125 34007
0.15200000 20.09550095 7.23050022 170 165 185 35517
0.15200000 20.09650040 7.23175001 170 165 185 35128
0.15200000 20.09399986 7.23400021 170 165 185 36328
0.15200000 20.09300041 7.23575020 170 165 185 33407
0.15200000 20.09350014 7.23824978 211 208 227 34875
0.15200000 20.09199905 7.24100018 211 208 227 38221
0.15200000 20.09049988 7.24149990 211 208 227 37760
0.15200000 20.09174919 7.24300003 211 208 227 37764
0.15200000 20.08975029 7.24324989 211 208 227 37614
0.15200000 20.09000015 7.24550009 199 200 220 38217
0.15200000 20.08975029 7.24674988 199 200 220 37914
0.15200000 20.08925056 7.24749994 199 200 220 37325
0.15200000 20.08724976 7.24875021 199 200 220 35514
0.15200000 20.08774948 7.25124979 199 200 220 36328
0.15200000 20.08625031 7.25274992 209 210 230 35121
0.15200000 20.08650017 7.25400019 209 210 230 34371
0.15200000 20.08550072 7.25449991 209 210 230 32942
0.15200000 20.08499908 7.25549984 209 210 230 31014
0.15200000 20.08550072 7.25675011 209 210 230 28435
0.15200000 20.08374977 7.25699997 209 210 230 24371
0.15200000 20.08374977 7.25825024 209 210 230 19775
0.15200000 20.08449936 7.25950003 209 210 230 14650
0.15200000 20.08200073 7.26175022 188 189 209 4428
0.15200000 20.08250046 7.26324987 188 189 209 3242
0.15175000 20.08074951 7.26375008 188 189 209 2425
0.15175000 20.07299995 7.28074980 77 75 96 1064
0.15175000 20.07299995 7.28299999 77 75 96 1096
0.15300000 20.11174965 7.19449997 85 64 81 1121
0.15300000 20.11050034 7.19850016 77 58 77 1071
0.15300000 20.10899925 7.20300007 77 58 77 1203
0.15300000 20.10524940 7.21124983 61 46 65 1350
0.15300000 20.10050011 7.21824980 71 59 79 3396
0.15300000 20.10124969 7.22049999 114 107 125 12075
0.15300000 20.09975052 7.22224998 114 107 125 25142
0.15300000 20.09899902 7.22499990 114 107 125 30628
0.15300000 20.09774971 7.22574997 114 107 125 32064
0.15300000 20.09774971 7.22674990 114 107 125 32389
0.15300000 20.09700012 7.22749996 114 107 125 33764
0.15300000 20.09650040 7.22825003 170 165 185 34492
0.15300000 20.09600067 7.22924995 170 165 185 35000
0.15275000 20.09449959 7.23175001 170 165 185 35917
0.15275000 20.09375000 7.23374987 170 165 185 36467
0.15275000 20.09275055 7.23649979 211 208 227 34371
0.15275000 20.09300041 7.23974991 211 208 227 36610
0.15275000 20.09074974 7.24125004 211 208 227 37760
0.15275000 20.09074974 7.24224997 211 208 227 38682
0.15275000 20.08975029 7.24300003 211 208 227 38367
0.15275000 20.08950043 7.24599981 199 200 220 36328
0.15275000 20.08975029 7.24725008 199 200 220 35260
0.15275000 20.08724976 7.24949980 199 200 220 36746
0.15275000 20.08724976 7.25050020 199 200 220 36746
0.15275000 20.08625031 7.25225019 199 200 220 37760
0.15275000 20.08675003 7.25349998 209 210 230 36607
0.15275000 20.08575058 7.25400019 209 210 230 35782
0.15275000 20.08625031 7.25549984 209 210 230 34492
0.15275000 20.08499908 7.25600004 209 210 230 32278
0.15275000 20.08449936 7.25699997 209 210 230 30921
0.15275000 20.08474922 7.25799990 209 210 230 27610
0.15275000 20.08424950 7.26000023 209 210 230 17589
0.15275000 20.08250046 7.26049995 209 210 230 12307
0.15275000 20.08149910 7.26224995 188 189 209 5907
0.15275000 20.08049965 7.26499987 188 189 209 2146
0.15275000 20.08074951 7.26725006 188 189 209 1696
0.15275000 20.07875061 7.26774979 188 189 209 1575
0.15275000 20.07850075 7.27274990 130 128 149 1107
0.15275000 20.07250023 7.28450012 77 75 96 1050
0.15400000 20.10574913 7.20774984 61 46 65 1285
0.15400000 20.10424995 7.21350002 71 59 79 1425
0.15400000 20.10325050 7.21425009 71 59 79 1689
0.15375000 20.10224915 7.21799994 71 59 79 4460
0.15375000 20.10025024 7.21950006 71 59 79 14650
0.15375000 20.10025024 7.22049999 114 107 125 21617
0.15375000 20.09950066 7.22450018 114 107 125 32496
0.15375000 20.09849930 7.22525024 114 107 125 32610
0.15375000 20.09774971 7.22599983 114 107 125 33521
0.15375000 20.09700012 7.22674990 114 107 125 34125
0.15375000 20.09600067 7.22849989 170 165 185 34492
0.15375000 20.09675026 7.22975016 170 165 185 34125
0.15375000 20.09550095 7.23050022 170 165 185 35257
0.15375000 20.09550095 7.23150015 170 165 185 35125
0.15375000 20.09600067 7.23274994 170 165 185 36610
0.15375000 20.09449959 7.23425007 170 165 185 36057
0.15375000 20.09325027 7.23699999 211 208 227 34871
0.15375000 20.09250069 7.24100018 211 208 227 37035
0.15375000 20.09049988 7.24375010 211 208 227 37178
0.15375000 20.08950043 7.24424982 199 200 220 36189
0.15375000 20.08950043 7.24550009 199 200 220 34871
0.15375000 20.08875084 7.24725008 199 200 220 35517
0.15375000 20.08749962 7.24900007 199 200 220 37032
0.15375000 20.08724976 7.25199986 199 200 220 38521
0.15375000 20.08550072 7.25250006 209 210 230 37614
0.15375000 20.08575058 7.25349998 209 210 230 36467
0.15375000 20.08499908 7.25449991 209 210 230 35650
0.15375000 20.08399963 7.25624990 209 210 230 32828
0.15375000 20.08374977 7.25825024 209 210 230 29575
0.15375000 20.08275032 7.25899982 209 210 230 25674
0.15375000 20.08349991 7.26025009 209 210 230 20810
0.15375000 20.08325005 7.26125002 188 189 209 16164
0.15375000 20.08149910 7.26275015 188 189 209 7235
0.15375000 20.08099937 7.26674986 188 189 209 2096
0.15375000 20.07975006 7.26749992 188 189 209 1817
0.15375000 20.07550049 7.27649975 130 128 149 1164
0.15475000 20.10574913 7.21024990 61 46 65 1325
0.15475000 20.10449982 7.21325016 71 59 79 1628
0.15475000 20.10275078 7.21675014 71 59 79 4017
0.15475000 20.10149956 7.21950006 71 59 79 19578
0.15475000 20.10050011 7.22025013 114 107 125 26910
0.15475000 20.09874916 7.22599983 114 107 125 34375
0.15475000 20.09700012 7.22625017 114 107 125 34125
0.15475000 20.09824944 7.22800016 114 107 125 33885
0.15475000 20.09749985 7.22875023 170 165 185 34375
0.15475000 20.09625053 7.22924995 170 165 185 35125
0.15475000 20.09550095 7.23099995 170 165 185 34492
0.15475000 20.09449959 7.23175001 170 165 185 34871
0.15475000 20.09424973 7.23274994 170 165 185 35650
0.15475000 20.09325027 7.23775005 211 208 227 34492
0.15475000 20.09099960 7.24224997 211 208 227 37032
0.15475000 20.09000015 7.24399996 211 208 227 34742
0.15475000 20.08975029 7.24499989 199 200 220 34617
0.15475000 20.08850098 7.24574995 199 200 220 35514
0.15475000 20.08900070 7.24700022 199 200 220 37032
0.15475000 20.08925056 7.24800014 199 200 220 38839
0.15475000 20.08850098 7.24875021 199 200 220 38839
0.15475000 20.08824921 7.24975014 199 200 220 38067
0.15475000 20.08799934 7.25075006 199 200 220 37914
0.15475000 20.08675003 7.25349998 209 210 230 36057
0.15475000 20.08525085 7.25500011 209 210 230 34242
0.15475000 20.08325005 7.26074982 209 210 230 24060
0.15475000 20.08200073 7.26125002 188 189 209 18025
0.15475000 20.08099937 7.26300001 188 189 209 8257
0.15475000 20.07999992 7.26700020 188 189 209 2160
0.15475000 20.07850075 7.26975012 130 128 149 1450
0.15475000 20.07925034 7.27099991 130 128 149 1328
0.15575001 20.10725021 7.20599985 61 46 65 1164
0.15575001 20.10474968 7.20849991 61 46 65 1457
0.15575001 20.10474968 7.20949984 61 46 65 1367
0.15575001 20.10375023 7.21325016 71 59 79 1817
0.15575001 20.10300064 7.21500015 71 59 79 2578
0.15575001 20.10224915 7.21600008 71 59 79 3803
0.15575001 20.10174942 7.21675014 71 59 79 6314
0.15575001 20.10224915 7.21799994 71 59 79 11564
0.15575001 20.10149956 7.21999979 71 59 79 25550
0.15575001 20.10074997 7.22074986 114 107 125 30825
0.15575001 20.10050011 7.22174978 114 107 125 34128
0.15575001 20.09849930 7.22300005 114 107 125 34371
0.15575001 20.09849930 7.22625017 114 107 125 33764
0.15575001 20.09650040 7.22749996 114 107 125 33292
0.15575001 20.09625053 7.22849989 170 165 185 33764
0.15575001 20.09575081 7.23050022 170 165 185 34003
0.15575001 20.09449959 7.23199987 170 165 185 34242
0.15575001 20.09449959 7.23325014 170 165 185 35385
0.15575001 20.09499931 7.23449993 170 165 185 36060
0.15575001 20.09275055 7.23675013 211 208 227 33882
0.15575001 20.09250069 7.23899984 211 208 227 36057
0.15575001 20.09099960 7.24174976 211 208 227 37325
0.15575001 20.09149933 7.24300003 211 208 227 36610
0.15575001 20.09099960 7.24375010 211 208 227 35260
0.15575001 20.09025002 7.24475002 199 200 220 35917
0.15575001 20.08950043 7.24550009 199 200 220 36057
0.15575001 20.08925056 7.24625015 199 200 220 36467
0.15575001 20.08875084 7.24725008 199 200 220 38371
0.15575001 20.08774948 7.24900007 199 200 220 38678
0.15575001 20.08799934 7.25000000 199 200 220 37471
0.15575001 20.08699989 7.25075006 199 200 220 37325
0.15575001 20.08749962 7.25199986 199 200 220 36889
0.15575001 20.08600044 7.25374985 209 210 230 34489
0.15575001 20.08575058 7.25475025 209 210 230 34489
0.15575001 20.08525085 7.25549984 209 210 230 34742
0.15575001 20.08424950 7.25624990 209 210 230 35253
0.15575001 20.08449936 7.25750017 209 210 230 36467
0.15575001 20.08424950 7.25950003 209 210 230 34489
0.15575001 20.08325005 7.26125002 188 189 209 26839
0.15549999 20.08124924 7.26275015 188 189 209 15114
0.15549999 20.07900047 7.26725006 188 189 209 2553
0.15549999 20.07850075 7.26999998 130 128 149 1492
0.15549999 20.07774925 7.27075005 130 128 149 1500
0.15549999 20.07875061 7.27225018 130 128 149 1278
0.15549999 20.07724953 7.27374983 130 128 149 1292
0.15549999 20.07500076 7.27724981 77 75 96 1100
0.15674999 20.10524940 7.20924997 61 46 65 1328
0.15674999 20.10149956 7.21750021 71 59 79 17692
0.15674999 20.10074997 7.22049999 114 107 125 34128
0.15674999 20.09925079 7.22399998 114 107 125 35921
0.15674999 20.09925079 7.22499990 114 107 125 35921
0.15674999 20.09824944 7.22674990 114 107 125 34007
0.15674999 20.09675026 7.22949982 170 165 185 33410
0.15674999 20.09625053 7.23150015 170 165 185 33885
0.15674999 20.09424973 7.23274994 170 165 185 34996
0.15674999 20.09275055 7.23649979 211 208 227 34003
0.15674999 20.09300041 7.23874998 211 208 227 37917
0.15674999 20.09199905 7.24049997 211 208 227 37764
0.15674999 20.09199905 7.24149990 211 208 227 36610
0.15674999 20.09149933 7.24249983 211 208 227 36610
0.15674999 20.09049988 7.24324989 211 208 227 36607
0.15674999 20.08975029 7.24499989 199 200 220 36607
0.15674999 20.08975029 7.24725008 199 200 220 38525
0.15674999 20.08850098 7.24774981 199 200 220 38996
0.15674999 20.08799934 7.24949980 199 200 220 37325
0.15674999 20.08774948 7.25050020 199 200 220 37032
0.15650000 20.08575058 7.25299978 209 210 230 34367
0.15650000 20.08575058 7.25400019 209 210 230 34367
0.15650000 20.08474922 7.25600004 209 210 230 35382
0.15650000 20.08349991 7.26074982 209 210 230 30817
0.15650000 20.08124924 7.26224995 188 189 209 21707
0.15650000 20.08074951 7.26399994 188 189 209 11200
0.15650000 20.08024979 7.26499987 188 189 209 7432
0.15775000 20.10375023 7.21449995 71 59 79 3714
0.15775000 20.10149956 7.21575022 71 59 79 12342
0.15775000 20.10275078 7.21724987 71 59 79 19071
0.15775000 20.10050011 7.21850014 71 59 79 31221
0.15775000 20.10000038 7.21950006 71 59 79 34371
0.15750000 20.09950066 7.22025013 114 107 125 35785
0.15775000 20.10050011 7.22275019 114 107 125 36475
0.15775000 20.10000038 7.22349977 114 107 125 37182
0.15750000 20.09950066 7.22450018 114 107 125 36614
0.15750000 20.09849930 7.22525024 114 107 125 36471
0.15750000 20.09849930 7.22725010 114 107 125 34875
0.15750000 20.09724998 7.22774982 114 107 125 34125
0.15750000 20.09700012 7.22875023 170 165 185 33525
0.15750000 20.09724998 7.23000002 170 165 185 34128
0.15750000 20.09499931 7.23124981 170 165 185 35517
0.15750000 20.09600067 7.23274994 170 165 185 35000
0.15750000 20.09325027 7.23500013 170 165 185 33882
0.15750000 20.09275055 7.23575020 170 165 185 34489
0.15750000 20.09275055 7.23799992 211 208 227 35517
0.15750000 20.09225082 7.23874998 211 208 227 36746
0.15750000 20.09250069 7.23999977 211 208 227 36192
0.15750000 20.09199905 7.24100018 211 208 227 36057
0.15750000 20.09049988 7.24249983 211 208 227 36746
0.15750000 20.08975029 7.24324989 211 208 227 36607
0.15750000 20.08925056 7.24749994 199 200 220 38217
0.15750000 20.08824921 7.24924994 199 200 220 37325
0.15750000 20.08774948 7.25000000 199 200 220 36057
0.15750000 20.08724976 7.25099993 199 200 220 36189
0.15750000 20.08575058 7.25349998 209 210 230 34489
0.15750000 20.08575058 7.25575018 209 210 230 35257
0.15750000 20.08449936 7.25850010 209 210 230 36057
0.15750000 20.08399963 7.25950003 209 210 230 35382
0.15750000 20.08225060 7.26000023 209 210 230 33639
0.15750000 20.08149910 7.26175022 188 189 209 28096
0.15750000 20.08099937 7.26275015 188 189 209 23414
0.15750000 20.07850075 7.27124977 130 128 149 1564
0.15750000 20.07674980 7.27374983 130 128 149 1367
0.15750000 20.07374954 7.27899981 77 75 96 1164
0.15750000 20.07349968 7.28324986 77 75 96 1296
0.15875000 20.10899925 7.19974995 69 52 70 1132
0.15875000 20.10824966 7.20375013 71 58 75 1253
0.15875000 20.10600090 7.20725012 71 58 75 1203
0.15875000 20.10600090 7.20949984 71 58 75 1442
0.15850000 20.10275078 7.21474981 116 107 124 8596
0.15850000 20.10124969 7.21624994 116 107 124 22803
0.15850000 20.10149956 7.21850014 116 107 124 32496
0.15850000 20.10050011 7.21925020 116 107 124 34125
0.15850000 20.09950066 7.22300005 181 174 190 37182
0.15850000 20.09824944 7.22375011 181 174 190 36471
0.15850000 20.09824944 7.22574997 181 174 190 35128
0.15850000 20.09650040 7.22825003 210 206 223 33642
0.15850000 20.09575081 7.22900009 210 206 223 34617
0.15850000 20.09650040 7.23050022 210 206 223 35000
0.15850000 20.09524918 7.23099995 210 206 223 35517
0.15850000 20.09499931 7.23199987 210 206 223 35650
0.15850000 20.09375000 7.23374987 210 206 223 33882
0.15850000 20.09225082 7.23950005 202 199 218 34617
0.15850000 20.09099960 7.24224997 202 199 218 34871
0.15850000 20.08950043 7.24375010 202 199 218 34742
0.15850000 20.08950043 7.24499989 199 200 220 35385
0.15850000 20.08900070 7.24774981 199 200 220 36889
0.15850000 20.08900070 7.24875021 199 200 220 36750
0.15850000 20.08650017 7.25000000 199 200 220 36185
0.15850000 20.08774948 7.25174999 199 200 220 36467
0.15850000 20.08699989 7.25250006 199 200 220 35650
0.15850000 20.08600044 7.25299978 206 208 229 35914
0.15850000 20.08550072 7.25500011 206 208 229 34617
0.15850000 20.08525085 7.25624990 206 208 229 34617
0.15850000 20.08374977 7.25775003 206 208 229 35514
0.15850000 20.08349991 7.25874996 206 208 229 36325
0.15850000 20.08225060 7.25950003 206 208 229 34485
0.15850000 20.08074951 7.26324987 207 210 229 25271
0.15850000 20.08074951 7.26424980 207 210 229 20903
0.15850000 20.08149910 7.26550007 207 210 229 15921
0.15850000 20.07950020 7.26700020 207 210 229 7210
0.15850000 20.07799911 7.27050018 177 178 198 2096
0.15850000 20.07699966 7.27225018 177 178 198 1703
0.15850000 20.07475090 7.27899981 119 120 140 1317
0.15850000 20.07424927 7.28000021 119 120 140 1264
0.15950000 20.10924911 7.20249987 69 52 70 1196
0.15950000 20.10574913 7.21075010 71 58 75 1889
0.15950000 20.10325050 7.21425009 116 107 124 10660
0.15950000 20.10275078 7.21525002 116 107 124 17371
0.15950000 20.10275078 7.21624994 116 107 124 23767
0.15950000 20.10124969 7.21775007 116 107 124 32064
0.15950000 20.10099983 7.21875000 116 107 124 34375
0.15950000 20.10000038 7.21925020 116 107 124 34871
0.15950000 20.10000038 7.22025013 181 174 190 35921
0.15950000 20.09899902 7.22324991 181 174 190 36192
0.15950000 20.09925079 7.22424984 181 174 190 35789
0.15950000 20.09799957 7.22599983 181 174 190 34246
0.15950000 20.09749985 7.22700024 181 174 190 33525
0.15950000 20.09774971 7.22800016 181 174 190 33175
0.15950000 20.09600067 7.22849989 210 206 223 33057
0.15950000 20.09550095 7.22924995 210 206 223 34742
0.15950000 20.09650040 7.23175001 210 206 223 35389
0.15950000 20.09524918 7.23350000 210 206 223 33642
0.15950000 20.09375000 7.23400021 210 206 223 33760
0.15950000 20.09275055 7.23575020 210 206 223 34371
