//X Y Z R G B Intensity
0.13824999 20.07175064 7.28299999 81 66 85 1075
0.13824999 20.07275009 7.28450012 81 66 85 1125
0.13824999 20.06925011 7.28525019 81 66 85 1042
0.13824999 20.07275009 7.28749990 81 66 85 1157
0.13824999 20.06999969 7.28775024 81 66 85 1139
0.13950001 20.11624908 7.18699980 77 59 83 1171
0.13950001 20.11599922 7.18800020 77 59 83 1121
0.13950001 20.11350060 7.18825006 77 59 83 992
0.13950001 20.11524963 7.19425011 77 59 83 932
0.13950001 20.11325073 7.19750023 75 61 86 789
0.13950001 20.11174965 7.19824982 75 61 86 885
0.13925000 20.10849953 7.19799995 75 61 86 982
0.13925000 20.10849953 7.20125008 75 61 86 910
0.13950001 20.10874939 7.20774984 84 71 97 975
0.13925000 20.10625076 7.21000004 84 71 97 1100
0.13925000 20.10275078 7.20975018 78 68 95 1132
0.13925000 20.09899902 7.21700001 78 68 95 1096
0.13925000 20.10400009 7.21974993 73 64 91 1128
0.13925000 20.09575081 7.22625017 108 102 130 1660
0.13925000 20.09424973 7.23000002 108 102 130 6317
0.13925000 20.09474945 7.23124981 108 102 130 12539
0.13925000 20.09424973 7.23199987 108 102 130 19617
0.13925000 20.09625053 7.23374987 108 102 130 26107
0.13925000 20.09650040 7.23500013 161 157 182 31125
0.13925000 20.09350014 7.23500013 161 157 182 33292
0.13925000 20.09399986 7.23624992 161 157 182 35260
0.13925000 20.09300041 7.23699999 161 157 182 35650
0.13925000 20.09375000 7.23850012 161 157 182 35260
0.13925000 20.09174919 7.23874998 161 157 182 34742
0.13925000 20.09199905 7.23999977 161 157 182 33882
0.13925000 20.09174919 7.24100018 161 157 182 34003
0.13925000 20.09325027 7.24249983 161 157 182 33064
0.13925000 20.09074974 7.24275017 208 209 227 31528
0.13925000 20.09049988 7.24375010 208 209 227 28599
0.13925000 20.09174919 7.24525023 208 209 227 24750
0.13925000 20.08850098 7.24499989 208 209 227 18914
0.13925000 20.08749962 7.24574995 208 209 227 14253
0.13925000 20.08824921 7.24800014 208 209 227 6842
0.13925000 20.08625031 7.24849987 208 209 227 4757
0.13925000 20.08799934 7.25549984 196 198 211 1489
0.13925000 20.08575058 7.25600004 196 198 211 1367
0.13925000 20.08374977 7.25724983 196 198 211 1246
0.13925000 20.08275032 7.25899982 149 148 162 1171
0.13925000 20.07975006 7.26100016 149 148 162 1039
0.13925000 20.07875061 7.26375008 149 148 162 1114
0.13925000 20.08175087 7.26599979 149 148 162 1189
0.13925000 20.07875061 7.26700020 92 88 103 1360
0.13925000 20.08225060 7.26924992 92 88 103 1325
0.13925000 20.08049965 7.26975012 92 88 103 1182
0.13900000 20.07500076 7.27524996 75 64 81 1157
0.13900000 20.07399940 7.27699995 75 64 81 1010
0.13900000 20.07349968 7.27775002 75 64 81 1057
0.13900000 20.07150078 7.27925014 75 64 81 967
0.13900000 20.07150078 7.28249979 75 64 81 1075
0.13900000 20.07449913 7.28674984 81 66 85 1057
0.13900000 20.07324982 7.28749990 81 66 85 1107
0.13900000 20.07349968 7.28849983 81 66 85 1096
0.14025000 20.11450005 7.19299984 77 59 83 982
0.14025000 20.11375046 7.19724989 75 61 86 821
0.14025000 20.10325050 7.20949984 78 68 95 1146
0.14025000 20.10675049 7.21274996 78 68 95 1146
0.14025000 20.10600090 7.21350002 78 68 95 1171
0.14025000 20.10474968 7.21525002 78 68 95 1139
0.14025000 20.10124969 7.22025013 73 64 91 1296
0.14025000 20.09724998 7.22100019 73 64 91 1467
0.14025000 20.09849930 7.22249985 73 64 91 1596
0.14025000 20.09749985 7.22424984 73 64 91 1671
0.14025000 20.09874916 7.22700024 108 102 130 1792
0.14000000 20.09499931 7.22650003 108 102 130 1942
0.14025000 20.09575081 7.23000002 108 102 130 8010
0.14000000 20.09499931 7.23075008 108 102 130 14007
0.14025000 20.09600067 7.23225021 108 102 130 21567
0.14025000 20.09724998 7.23374987 108 102 130 28189
0.14000000 20.09550095 7.23400021 108 102 130 33060
0.14000000 20.09550095 7.23500013 161 157 182 34746
0.14000000 20.09424973 7.23575020 161 157 182 35385
0.14000000 20.09399986 7.23675013 161 157 182 35653
0.14000000 20.09199905 7.23699999 161 157 182 35517
0.14000000 20.09250069 7.23824978 161 157 182 35650
0.14000000 20.09074974 7.23874998 161 157 182 34996
0.14000000 20.09325027 7.24074984 161 157 182 35521
0.14000000 20.08975029 7.24049997 161 157 182 35253
0.14000000 20.09149933 7.24224997 161 157 182 35385
0.14000000 20.09275055 7.24375010 208 209 227 33767
0.14000000 20.08975029 7.24375010 208 209 227 30521
0.14000000 20.08950043 7.24475002 208 209 227 26317
0.14000000 20.08950043 7.24574995 208 209 227 21810
0.14000000 20.08850098 7.24650002 208 209 227 16967
0.14000000 20.08799934 7.24725008 208 209 227 12278
0.14000000 20.08600044 7.24749994 208 209 227 8217
0.14000000 20.08699989 7.24900007 208 209 227 5489
0.14000000 20.08950043 7.25099993 208 209 227 3739
0.14000000 20.08600044 7.25075006 196 198 211 2850
0.14000000 20.08424950 7.25124979 196 198 211 2325
0.14000000 20.08724976 7.25325012 196 198 211 1875
0.14000000 20.08675003 7.25650024 196 198 211 1342
0.14000000 20.08374977 7.25650024 196 198 211 1271
0.14000000 20.08175087 7.25799990 196 198 211 1146
0.14000000 20.08399963 7.26200008 149 148 162 1042
0.14000000 20.08250046 7.26224995 149 148 162 1082
0.14000000 20.08399963 7.26399994 149 148 162 1125
0.14000000 20.07925034 7.26424980 149 148 162 1239
0.14000000 20.07825089 7.27474976 92 88 103 1246
0.14000000 20.07699966 7.27649975 75 64 81 1203
0.14000000 20.07324982 7.28025007 75 64 81 985
0.14000000 20.07324982 7.28249979 75 64 81 1050
0.14000000 20.07099915 7.28375006 81 66 85 1050
0.14000000 20.06999969 7.28550005 81 66 85 1010
0.14125000 20.11499977 7.19525003 75 61 86 899
0.14125000 20.11199951 7.19824982 75 61 86 917
0.14125000 20.10824966 7.20874977 84 71 97 1164
0.14125000 20.10250092 7.21075010 78 68 95 1189
0.14125000 20.10400009 7.21350002 78 68 95 1057
0.14125000 20.10499954 7.21500015 78 68 95 1000
0.14125000 20.10050011 7.21875000 73 64 91 1325
0.14100000 20.09899902 7.22025013 73 64 91 1467
0.14100000 20.09899902 7.22125006 73 64 91 1596
0.14100000 20.09799957 7.22424984 73 64 91 1614
0.14100000 20.09625053 7.22450018 73 64 91 1760
0.14100000 20.09724998 7.22700024 108 102 130 2089
0.14100000 20.09824944 7.22849989 108 102 130 3117
0.14100000 20.09499931 7.22924995 108 102 130 9892
0.14100000 20.09524918 7.23050022 108 102 130 16246
0.14100000 20.09449959 7.23124981 108 102 130 23821
0.14100000 20.09724998 7.23325014 108 102 130 30928
0.14100000 20.09675026 7.23425007 108 102 130 34496
0.14100000 20.09499931 7.23474979 161 157 182 35521
0.14100000 20.09399986 7.23525000 161 157 182 34617
0.14100000 20.09199905 7.23575020 161 157 182 34000
0.14100000 20.09275055 7.23699999 161 157 182 34742
0.14100000 20.09399986 7.23874998 161 157 182 35389
0.14100000 20.09250069 7.23925018 161 157 182 36328
0.14100000 20.09199905 7.23999977 161 157 182 36328
0.14100000 20.09000015 7.24025011 161 157 182 36882
0.14100000 20.09250069 7.24224997 161 157 182 37917
0.14100000 20.09300041 7.24349976 208 209 227 37039
0.14100000 20.09074974 7.24375010 208 209 227 35000
0.14100000 20.09199905 7.24525023 208 209 227 33410
0.14100000 20.09000015 7.24550009 208 209 227 30428
0.14100000 20.08925056 7.24650002 208 209 227 26317
0.14100000 20.08900070 7.24725008 208 209 227 20950
0.14100000 20.08749962 7.24774981 208 209 227 14785
0.14100000 20.08824921 7.24924994 208 209 227 9835
0.14100000 20.08600044 7.24949980 208 209 227 7064
0.14100000 20.08575058 7.25050020 196 198 211 4617
0.14100000 20.08699989 7.25199986 196 198 211 3275
0.14100000 20.08525085 7.25250006 196 198 211 2382
0.14100000 20.08349991 7.25299978 196 198 211 2082
0.14100000 20.08300018 7.25500011 196 198 211 1557
0.14100000 20.08200073 7.25675011 196 198 211 1350
0.14100000 20.08275032 7.25899982 149 148 162 1171
0.14100000 20.08124924 7.26049995 149 148 162 1139
0.14100000 20.08399963 7.26475000 149 148 162 1203
0.14100000 20.07999992 7.26650000 149 148 162 1246
0.14100000 20.07575035 7.26924992 92 88 103 1132
0.14100000 20.07625008 7.27075005 92 88 103 1089
0.14100000 20.07649994 7.27899981 75 64 81 935
0.14100000 20.07399940 7.28025007 75 64 81 960
0.14100000 20.07099915 7.28249979 75 64 81 982
0.14100000 20.07399940 7.28550005 81 66 85 903
0.14100000 20.07275009 7.28725004 81 66 85 1007
0.14225000 20.11224937 7.19024992 77 59 83 1025
0.14225000 20.11249924 7.19150019 77 59 83 1007
0.14225000 20.11274910 7.19250011 77 59 83 992
0.14225000 20.10874939 7.19549990 75 61 86 842
0.14225000 20.11149979 7.19850016 75 61 86 853
0.14225000 20.10650063 7.19974995 75 61 86 957
0.14225000 20.10849953 7.20825005 84 71 97 1242
0.14225000 20.10375023 7.21175003 78 68 95 1214
0.14225000 20.10499954 7.21525002 78 68 95 1114
0.14200000 20.10000038 7.22100019 73 64 91 1589
0.14200000 20.09975052 7.22200012 73 64 91 1607
0.14200000 20.09899902 7.22275019 73 64 91 1614
0.14200000 20.09849930 7.22475004 73 64 91 1785
0.14200000 20.09975052 7.22625017 73 64 91 2003
0.14200000 20.09474945 7.22749996 108 102 130 6932
0.14200000 20.09499931 7.22875023 108 102 130 12435
0.14200000 20.09600067 7.23000002 108 102 130 19778
0.14200000 20.09650040 7.23124981 108 102 130 26035
0.14200000 20.09600067 7.23225021 108 102 130 30525
0.14200000 20.09524918 7.23299980 108 102 130 32389
0.14200000 20.09575081 7.23425007 108 102 130 34246
0.14200000 20.09424973 7.23474979 161 157 182 34246
0.14200000 20.09399986 7.23575020 161 157 182 34003
0.14200000 20.09600067 7.23750019 161 157 182 33414
0.14200000 20.09275055 7.23750019 161 157 182 34371
0.14200000 20.09149933 7.23799992 161 157 182 35382
0.14200000 20.09300041 7.23974991 161 157 182 36750
0.14200000 20.09149933 7.24025011 161 157 182 37614
0.14200000 20.09250069 7.24174976 161 157 182 39000
0.14200000 20.09124947 7.24224997 161 157 182 38682
0.14200000 20.09074974 7.24324989 208 209 227 37325
0.14200000 20.09000015 7.24399996 208 209 227 35650
0.14200000 20.08900070 7.24450016 208 209 227 33878
0.14200000 20.08925056 7.24574995 208 209 227 30817
0.14200000 20.08875084 7.24650002 208 209 227 26985
0.14200000 20.09000015 7.24800014 208 209 227 22271
0.14200000 20.08799934 7.24825001 208 209 227 16525
0.14200000 20.08600044 7.24875021 208 209 227 12485
0.14200000 20.08499908 7.24949980 208 209 227 8625
0.14200000 20.08600044 7.25075006 196 198 211 5600
0.14200000 20.08474922 7.25150013 196 198 211 4021
0.14200000 20.08675003 7.25449991 196 198 211 2350
0.14200000 20.08699989 7.25675011 196 198 211 1792
0.14200000 20.08325005 7.25650024 196 198 211 1632
0.14200000 20.07900047 7.26749992 92 88 103 1296
0.14200000 20.08024979 7.26900005 92 88 103 1246
0.14200000 20.07625008 7.27624989 75 64 81 1089
0.14200000 20.07525063 7.28224993 75 64 81 1082
0.14200000 20.07324982 7.28249979 75 64 81 953
0.14325000 20.11300087 7.19124985 77 59 83 935
0.14325000 20.11450005 7.19400024 77 59 83 1032
0.14300001 20.11124992 7.19799995 75 61 86 982
0.14300001 20.10899925 7.19925022 75 61 86 985
0.14300001 20.10725021 7.20074987 75 61 86 917
0.14300001 20.10874939 7.20249987 84 71 97 950
0.14300001 20.10424995 7.20625019 84 71 97 1089
0.14300001 20.10849953 7.20975018 84 71 97 1228
0.14300001 20.10600090 7.21000004 84 71 97 1271
0.14300001 20.10499954 7.21600008 78 68 95 1228
0.14300001 20.10099983 7.21549988 78 68 95 1171
0.14300001 20.09874916 7.22025013 73 64 91 1546
0.14300001 20.09975052 7.22149992 73 64 91 1639
0.14300001 20.10000038 7.22275019 73 64 91 1614
0.14300001 20.09550095 7.22625017 108 102 130 4442
0.14300001 20.10000038 7.22900009 108 102 130 9053
0.14300001 20.09675026 7.22875023 108 102 130 14857
0.14300001 20.09625053 7.22975016 108 102 130 21421
0.14300001 20.09700012 7.23124981 108 102 130 27857
0.14300001 20.09474945 7.23150015 108 102 130 31221
0.14300001 20.09424973 7.23225021 108 102 130 32607
0.14300001 20.09399986 7.23325014 108 102 130 34121
0.14300001 20.09524918 7.23474979 161 157 182 34246
0.14300001 20.09449959 7.23549986 161 157 182 34875
0.14300001 20.09399986 7.23649979 161 157 182 34492
0.14300001 20.09300041 7.23724985 161 157 182 34125
0.14300001 20.09449959 7.23874998 161 157 182 35128
0.14300001 20.09250069 7.23925018 161 157 182 36889
0.14300001 20.09300041 7.24049997 161 157 182 38375
0.14300001 20.09275055 7.24149990 161 157 182 38525
0.14300001 20.09149933 7.24200010 161 157 182 38839
0.14300001 20.09174919 7.24300003 208 209 227 37917
0.14300001 20.09149933 7.24399996 208 209 227 36610
0.14300001 20.09074974 7.24499989 208 209 227 34492
0.14300001 20.08975029 7.24550009 208 209 227 32721
0.14300001 20.09049988 7.24700022 208 209 227 30721
0.14300001 20.09049988 7.24800014 208 209 227 27696
0.14300001 20.09000015 7.24875021 208 209 227 23653
0.14300001 20.08774948 7.24900007 208 209 227 19103
0.14300001 20.08724976 7.25000000 208 209 227 14900
0.14300001 20.08625031 7.25075006 196 198 211 9678
0.14300001 20.08424950 7.25099993 196 198 211 6360
0.14300001 20.08374977 7.25199986 196 198 211 4396
0.14300001 20.08474922 7.25349998 196 198 211 3142
0.14300001 20.08675003 7.25524998 196 198 211 2571
0.14300001 20.08449936 7.25549984 196 198 211 2210
0.14300001 20.08200073 7.26300001 149 148 162 1342
0.14300001 20.08074951 7.27124977 92 88 103 1189
0.14300001 20.07825089 7.27225018 92 88 103 1214
0.14300001 20.07925034 7.27474976 92 88 103 1153
0.14274999 20.07399940 7.27925014 75 64 81 1017
0.14274999 20.07324982 7.28000021 75 64 81 1139
0.14274999 20.07399940 7.28350019 75 64 81 1089
0.14274999 20.07225037 7.28399992 81 66 85 1064
0.14274999 20.07250023 7.28625011 81 66 85 1067
0.14399999 20.11224937 7.19675016 75 61 86 1071
0.14399999 20.10799980 7.20900011 84 71 97 1121
0.14399999 20.10400009 7.21274996 78 68 95 1317
0.14399999 20.10375023 7.21799994 78 68 95 1285
0.14399999 20.09874916 7.21824980 73 64 91 1532
0.14399999 20.09950066 7.22174978 73 64 91 1735
0.14399999 20.10000038 7.22424984 73 64 91 1957
0.14399999 20.09650040 7.22599983 108 102 130 6439
0.14399999 20.09650040 7.22725010 108 102 130 11750
0.14399999 20.09749985 7.22849989 108 102 130 18060
0.14399999 20.09550095 7.22875023 108 102 130 23942
0.14399999 20.09899902 7.23099995 108 102 130 28785
0.14399999 20.09600067 7.23099995 108 102 130 31532
0.14399999 20.09375000 7.23124981 108 102 130 32492
0.14399999 20.09424973 7.23250008 108 102 130 33642
0.14399999 20.09375000 7.23350000 108 102 130 34003
0.14399999 20.09375000 7.23449993 161 157 182 34489
0.14399999 20.09350014 7.23549986 161 157 182 35000
0.14399999 20.09124947 7.23575020 161 157 182 34614
0.14399999 20.09375000 7.23775005 161 157 182 34621
0.14399999 20.09174919 7.23824978 161 157 182 35517
0.14399999 20.09275055 7.23950005 161 157 182 36889
0.14399999 20.09174919 7.24025011 161 157 182 37760
0.14399999 20.09350014 7.24200010 161 157 182 38225
0.14399999 20.09174919 7.24249983 161 157 182 37617
0.14399999 20.09300041 7.24399996 208 209 227 36892
0.14399999 20.09049988 7.24399996 208 209 227 34746
0.14399999 20.09225082 7.24574995 208 209 227 33525
0.14399999 20.08900070 7.24550009 208 209 227 32942
0.14399999 20.08900070 7.24674988 208 209 227 32060
0.14399999 20.08900070 7.24774981 208 209 227 31017
0.14399999 20.09025002 7.24924994 208 209 227 27146
0.14399999 20.08850098 7.24949980 208 209 227 23075
0.14399999 20.08650017 7.25000000 208 209 227 17271
0.14375000 20.08424950 7.25124979 196 198 211 8289
0.14375000 20.08625031 7.25325012 196 198 211 5532
0.14399999 20.08724976 7.25575018 196 198 211 2832
0.14375000 20.08550072 7.25825024 196 198 211 1696
0.14375000 20.07975006 7.26249981 149 148 162 1450
0.14375000 20.07875061 7.26424980 149 148 162 1321
0.14375000 20.07550049 7.27075005 92 88 103 1214
0.14500000 20.11224937 7.19724989 75 61 86 1089
0.14500000 20.10524940 7.20349979 84 71 97 992
0.14500000 20.10650063 7.20599985 84 71 97 942
0.14500000 20.09975052 7.21525002 78 68 95 1385
0.14500000 20.10300064 7.22174978 73 64 91 1646
0.14500000 20.09975052 7.22375011 73 64 91 2135
0.14500000 20.09749985 7.22499990 73 64 91 4246
0.14500000 20.09675026 7.22574997 108 102 130 7853
0.14500000 20.09700012 7.22674990 108 102 130 12907
0.14500000 20.09700012 7.22800016 108 102 130 20196
0.14500000 20.09625053 7.22875023 108 102 130 26035
0.14500000 20.09575081 7.22949982 108 102 130 29953
0.14500000 20.09724998 7.23124981 108 102 130 32389
0.14500000 20.09625053 7.23199987 108 102 130 33410
0.14500000 20.09449959 7.23250008 108 102 130 34003
0.14500000 20.09474945 7.23350000 108 102 130 35125
0.14500000 20.09600067 7.23500013 161 157 182 35389
0.14500000 20.09300041 7.23500013 161 157 182 35517
0.14500000 20.09499931 7.23675013 161 157 182 35003
0.14500000 20.09225082 7.23799992 161 157 182 34617
0.14500000 20.09000015 7.23824978 161 157 182 35514
0.14500000 20.09250069 7.24025011 161 157 182 36192
0.14500000 20.09049988 7.24049997 161 157 182 37032
0.14500000 20.09000015 7.24125004 161 157 182 37028
0.14500000 20.09199905 7.24324989 208 209 227 36750
0.14500000 20.09049988 7.24375010 208 209 227 35917
0.14475000 20.08950043 7.24424982 208 209 227 35382
0.14500000 20.09049988 7.24574995 208 209 227 34371
0.14475000 20.08875084 7.24625015 208 209 227 33521
0.14475000 20.08900070 7.24749994 208 209 227 32942
0.14475000 20.08749962 7.24800014 208 209 227 31117
0.14475000 20.08749962 7.24900007 208 209 227 27853
0.14475000 20.08774948 7.25024986 208 209 227 23585
0.14475000 20.08625031 7.25075006 196 198 211 18228
0.14475000 20.08650017 7.25199986 196 198 211 13303
0.14475000 20.08749962 7.25349998 196 198 211 9171
0.14475000 20.08675003 7.25400019 196 198 211 6167
0.14475000 20.08600044 7.25799990 196 198 211 2053
0.14475000 20.08499908 7.25874996 196 198 211 1914
0.14475000 20.08225060 7.25974989 149 148 162 1557
0.14475000 20.08525085 7.26200008 149 148 162 1628
0.14475000 20.08424950 7.26375008 149 148 162 1532
0.14475000 20.08024979 7.26324987 149 148 162 1500
0.14475000 20.07975006 7.26424980 149 148 162 1442
0.14475000 20.07749939 7.26774979 92 88 103 1203
0.14475000 20.07799911 7.27425003 92 88 103 1164
0.14475000 20.07424927 7.27600002 75 64 81 1214
0.14475000 20.07399940 7.27925014 75 64 81 1157
0.14475000 20.07625008 7.28224993 75 64 81 1089
0.14475000 20.07324982 7.28324986 75 64 81 1067
0.14475000 20.07324982 7.28649998 81 66 85 1089
0.14600000 20.11025047 7.19274998 75 61 86 1050
0.14600000 20.11224937 7.19575024 75 61 86 1100
0.14600000 20.10600090 7.20200014 84 71 97 1025
0.14600000 20.11050034 7.20475006 84 71 97 950
0.14600000 20.10499954 7.20375013 84 71 97 925
0.14600000 20.10799980 7.20599985 84 71 97 846
0.14600000 20.10799980 7.21024990 84 71 97 1171
0.14600000 20.10549927 7.21350002 78 68 95 1164
0.14600000 20.10375023 7.21374989 78 68 95 1296
0.14575000 20.09774971 7.21925020 73 64 91 1685
0.14600000 20.10000038 7.22224998 73 64 91 1950
0.14575000 20.09774971 7.22249985 73 64 91 2203
0.14575000 20.09625053 7.22275019 73 64 91 3207
0.14575000 20.09950066 7.22525024 73 64 91 5221
0.14575000 20.09799957 7.22674990 108 102 130 16271
0.14575000 20.09724998 7.22749996 108 102 130 22696
0.14575000 20.09774971 7.22875023 108 102 130 27614
0.14575000 20.09650040 7.22924995 108 102 130 31428
0.14575000 20.09550095 7.23000002 108 102 130 34003
0.14575000 20.09399986 7.23050022 108 102 130 35257
0.14575000 20.09474945 7.23175001 108 102 130 36328
0.14575000 20.09724998 7.23374987 108 102 130 37621
0.14575000 20.09550095 7.23425007 108 102 130 36889
0.14575000 20.09474945 7.23500013 161 157 182 37182
0.14575000 20.09300041 7.23549986 161 157 182 36607
0.14575000 20.09424973 7.23699999 161 157 182 36060
0.14575000 20.09149933 7.23699999 161 157 182 34996
0.14575000 20.09350014 7.23874998 161 157 182 36332
0.14575000 20.09074974 7.23874998 161 157 182 36053
0.14575000 20.09025002 7.23974991 161 157 182 36464
0.14575000 20.09025002 7.24074984 161 157 182 36185
0.14575000 20.09049988 7.24200010 161 157 182 37760
0.14575000 20.09124947 7.24324989 208 209 227 38221
0.14575000 20.09074974 7.24424982 208 209 227 37914
0.14575000 20.09074974 7.24525023 208 209 227 37617
0.14575000 20.08925056 7.24574995 208 209 227 36057
0.14575000 20.08774948 7.24625015 208 209 227 34121
0.14575000 20.08850098 7.24749994 208 209 227 32828
0.14575000 20.08875084 7.24875021 208 209 227 30625
0.14575000 20.08774948 7.24949980 208 209 227 28264
0.14575000 20.08799934 7.25050020 208 209 227 25139
0.14575000 20.08675003 7.25124979 196 198 211 20675
0.14575000 20.08550072 7.25199986 196 198 211 16328
0.14575000 20.08575058 7.25299978 196 198 211 11807
0.14575000 20.08550072 7.25400019 196 198 211 8142
0.14575000 20.08525085 7.25500011 196 198 211 5514
0.14575000 20.08650017 7.25650024 196 198 211 3657
0.14575000 20.08625031 7.25750017 196 198 211 2814
0.14575000 20.08200073 7.25799990 196 198 211 2000
0.14575000 20.08374977 7.26399994 149 148 162 1432
0.14575000 20.08024979 7.26375008 149 148 162 1467
0.14575000 20.08275032 7.26574993 149 148 162 1457
0.14575000 20.08200073 7.26774979 149 148 162 1378
0.14575000 20.07850075 7.27174997 92 88 103 1132
0.14575000 20.07600021 7.27199984 92 88 103 1107
0.14575000 20.07749939 7.27449989 92 88 103 1125
0.14575000 20.07724953 7.27775002 75 64 81 1164
0.14575000 20.07449913 7.27974987 75 64 81 1239
0.14575000 20.07500076 7.28324986 75 64 81 1082
0.14700000 20.11050034 7.19575024 83 64 92 1025
0.14700000 20.10950089 7.20499992 84 68 95 967
0.14675000 20.10350037 7.20699978 84 68 95 1153
0.14675000 20.10224915 7.21400023 80 65 94 1239
0.14675000 20.10149956 7.21799994 93 80 108 1342
0.14675000 20.10224915 7.21950006 93 80 108 1582
0.14675000 20.09899902 7.22025013 93 80 108 1875
0.14675000 20.09899902 7.22249985 93 80 108 2392
0.14675000 20.09724998 7.22375011 93 80 108 7192
0.14675000 20.10000038 7.22574997 93 80 108 12096
0.14675000 20.09975052 7.22674990 145 134 164 18878
0.14675000 20.09675026 7.22800016 145 134 164 31121
0.14675000 20.09675026 7.22900009 145 134 164 34617
0.14675000 20.09625053 7.22975016 145 134 164 35917
0.14675000 20.09575081 7.23075008 145 134 164 37617
0.14675000 20.09449959 7.23150015 145 134 164 37325
0.14675000 20.09575081 7.23299980 145 134 164 37182
0.14675000 20.09424973 7.23350000 145 134 164 36889
0.14675000 20.09399986 7.23449993 197 192 215 37914
0.14675000 20.09399986 7.23549986 197 192 215 37035
0.14675000 20.09325027 7.23624992 197 192 215 36889
0.14675000 20.09124947 7.23675013 197 192 215 35514
0.14675000 20.09300041 7.23824978 197 192 215 34617
0.14675000 20.09300041 7.23950005 197 192 215 34621
0.14675000 20.09124947 7.23974991 197 192 215 35517
0.14675000 20.09174919 7.24100018 197 192 215 36057
0.14675000 20.09275055 7.24249983 197 192 215 37917
0.14675000 20.09099960 7.24399996 201 203 218 40146
0.14675000 20.09099960 7.24499989 201 203 218 38067
0.14675000 20.08875084 7.24525023 201 203 218 37032
0.14675000 20.08925056 7.24650002 201 203 218 34489
0.14675000 20.08850098 7.24725008 201 203 218 33057
0.14675000 20.08625031 7.24749994 201 203 218 31735
0.14675000 20.08749962 7.24900007 201 203 218 30135
0.14675000 20.08575058 7.24949980 201 203 218 28946
0.14675000 20.08699989 7.25099993 207 209 221 26985
0.14675000 20.08550072 7.25174999 207 209 221 22857
0.14675000 20.08474922 7.25250006 207 209 221 18057
0.14675000 20.08625031 7.25400019 207 209 221 13303
0.14675000 20.08575058 7.25500011 207 209 221 9539
0.14675000 20.08449936 7.25549984 207 209 221 6621
0.14675000 20.08625031 7.25699997 207 209 221 4417
0.14675000 20.08275032 7.25899982 183 183 195 2064
0.14675000 20.08099937 7.26375008 183 183 195 1460
0.14675000 20.07850075 7.26599979 183 183 195 1264
0.14675000 20.08049965 7.26800013 130 126 140 1164
0.14675000 20.07950020 7.26849985 130 126 140 1096
0.14675000 20.07699966 7.26875019 130 126 140 1139
0.14675000 20.07424927 7.27299976 130 126 140 1089
0.14675000 20.07150078 7.28175020 90 82 97 1042
0.14675000 20.07125092 7.28249979 90 82 97 1042
0.14650001 20.06999969 7.28424978 81 68 85 1075
0.14650001 20.07125092 7.28574991 81 68 85 1042
0.14775001 20.11249924 7.19250011 88 65 93 1007
0.14775001 20.11075020 7.19925022 83 64 92 1039
0.14775001 20.10849953 7.20400000 84 68 95 1189
0.14775001 20.10849953 7.20825005 84 68 95 1096
0.14775001 20.10424995 7.21099997 80 65 94 1278
0.14775001 20.10350037 7.21175003 80 65 94 1285
0.14775001 20.10149956 7.21299982 80 65 94 1285
0.14775001 20.09975052 7.21899986 93 80 108 1746
0.14775001 20.10325050 7.22125006 93 80 108 1850
0.14775001 20.09749985 7.22025013 93 80 108 2128
0.14775001 20.10025024 7.22324991 93 80 108 4842
0.14775001 20.09774971 7.22349977 93 80 108 9189
0.14775001 20.09749985 7.22424984 93 80 108 14903
0.14775001 20.09799957 7.22550011 93 80 108 22217
0.14775001 20.09799957 7.22674990 145 134 164 28864
0.14775001 20.09600067 7.22700024 145 134 164 33407
0.14775001 20.09675026 7.22825003 145 134 164 35260
0.14775001 20.09650040 7.22924995 145 134 164 37182
0.14775001 20.09625053 7.23024988 145 134 164 37471
0.14775001 20.09700012 7.23150015 145 134 164 37621
0.14775001 20.09575081 7.23225021 145 134 164 36610
0.14775001 20.09474945 7.23274994 145 134 164 36189
0.14775001 20.09424973 7.23374987 145 134 164 37325
0.14775001 20.09275055 7.23425007 197 192 215 38217
0.14775001 20.09375000 7.23575020 197 192 215 37471
0.14775001 20.09424973 7.23699999 197 192 215 35785
0.14775001 20.09149933 7.23699999 197 192 215 33878
0.14775001 20.09250069 7.23850012 197 192 215 33521
0.14775001 20.09199905 7.23925018 197 192 215 33521
0.14775001 20.09124947 7.23999977 197 192 215 35257
0.14775001 20.09225082 7.24149990 197 192 215 37764
0.14775001 20.09300041 7.24275017 197 192 215 39160
0.14775001 20.09225082 7.24349976 201 203 218 38842
0.14775001 20.09049988 7.24399996 201 203 218 38371
0.14775001 20.08900070 7.24550009 201 203 218 34367
0.14775001 20.09000015 7.24475002 201 203 218 36885
0.14775001 20.08799934 7.24625015 201 203 218 33057
0.14775001 20.08875084 7.24749994 201 203 218 32278
0.14775001 20.08724976 7.24825001 201 203 218 32492
0.14775001 20.08650017 7.24900007 201 203 218 32167
0.14775001 20.08550072 7.24975014 201 203 218 31632
0.14775001 20.08625031 7.25099993 207 209 221 29760
0.14775001 20.08675003 7.25225019 207 209 221 26464
0.14775001 20.08575058 7.25299978 207 209 221 22375
0.14775001 20.08499908 7.25400019 207 209 221 17117
0.14775001 20.08525085 7.25500011 207 209 221 12321
0.14749999 20.08300018 7.25524998 207 209 221 8225
0.14749999 20.08225060 7.25600004 207 209 221 5525
0.14775001 20.08625031 7.25850010 207 209 221 3839
0.14749999 20.08250046 7.26149988 183 183 195 1696
0.14749999 20.07975006 7.26800013 130 126 140 1264
0.14749999 20.07799911 7.27575016 90 82 97 1075
0.14749999 20.07399940 7.28074980 90 82 97 992
0.14875001 20.11375046 7.19675016 83 64 92 957
0.14875001 20.11000061 7.19775009 83 64 92 1000
0.14875001 20.10899925 7.19950008 83 64 92 1042
0.14875001 20.10574913 7.20149994 84 68 95 1178
0.14875001 20.10524940 7.20975018 84 68 95 1292
0.14875001 20.10400009 7.21350002 80 65 94 1342
0.14875001 20.10499954 7.21600008 80 65 94 1482
0.14875001 20.09724998 7.22174978 93 80 108 5260
0.14875001 20.09700012 7.22275019 93 80 108 9378
0.14875001 20.09874916 7.22450018 93 80 108 16850
0.14875001 20.09824944 7.22525024 93 80 108 22910
0.14875001 20.09925079 7.22674990 145 134 164 28864
0.14875001 20.09749985 7.22700024 145 134 164 33642
0.14875001 20.09774971 7.22825003 145 134 164 34492
0.14875001 20.09650040 7.22900009 145 134 164 35653
0.14875001 20.09799957 7.23050022 145 134 164 36196
0.14875001 20.09700012 7.23124981 145 134 164 36332
0.14875001 20.09399986 7.23124981 145 134 164 35517
0.14875001 20.09300041 7.23199987 145 134 164 35514
0.14875001 20.09499931 7.23374987 145 134 164 36332
0.14875001 20.09424973 7.23449993 197 192 215 37178
0.14875001 20.09575081 7.23624992 197 192 215 37475
0.14875001 20.09399986 7.23649979 197 192 215 36057
0.14875001 20.09424973 7.23775005 197 192 215 34246
0.14875001 20.09524918 7.23899984 197 192 215 32835
0.14875001 20.09250069 7.23925018 197 192 215 33407
0.14850000 20.09099960 7.23974991 197 192 215 34489
0.14875001 20.09225082 7.24125004 197 192 215 36610
0.14875001 20.09199905 7.24224997 197 192 215 37471
0.14850000 20.08925056 7.24224997 201 203 218 37467
0.14875001 20.09275055 7.24450016 201 203 218 36892
0.14875001 20.09124947 7.24499989 201 203 218 36060
0.14850000 20.08925056 7.24550009 201 203 218 34367
0.14850000 20.08724976 7.24574995 201 203 218 34000
0.14850000 20.08774948 7.24700022 201 203 218 33403
0.14850000 20.08600044 7.24749994 201 203 218 33514
0.14850000 20.08650017 7.24875021 201 203 218 33517
0.14850000 20.08774948 7.25024986 201 203 218 33760
0.14850000 20.08600044 7.25075006 207 209 221 33757
0.14850000 20.08575058 7.25174999 207 209 221 32603
0.14850000 20.08749962 7.25325012 207 209 221 28860
0.14850000 20.08600044 7.25400019 207 209 221 25074
0.14850000 20.08600044 7.25500011 207 209 221 20114
0.14850000 20.08525085 7.25575018 207 209 221 15503
0.14850000 20.08575058 7.25699997 207 209 221 10539
0.14850000 20.08499908 7.25974989 183 183 195 3282
0.14850000 20.08099937 7.26700020 183 183 195 1260
0.14850000 20.07749939 7.27199984 130 126 140 1064
0.14850000 20.07575035 7.27449989 130 126 140 1157
0.14850000 20.07674980 7.27699995 90 82 97 1153
0.14850000 20.07625008 7.27799988 90 82 97 1153
0.14850000 20.07449913 7.27825022 90 82 97 1125
0.14850000 20.07374954 7.28149986 90 82 97 1000
0.14850000 20.07099915 7.28350019 81 68 85 1075
0.14974999 20.11300087 7.19600010 83 64 92 853
0.14974999 20.10874939 7.19974995 83 64 92 1107
0.14974999 20.11075020 7.20249987 84 68 95 1107
0.14974999 20.11000061 7.20450020 84 68 95 1228
0.14974999 20.10625076 7.20650005 84 68 95 1171
0.14974999 20.10325050 7.20749998 84 68 95 1239
0.14974999 20.10600090 7.21049976 80 65 94 1292
0.14974999 20.10199928 7.21124983 80 65 94 1285
0.14974999 20.10600090 7.21374989 80 65 94 1325
0.14974999 20.10350037 7.21374989 80 65 94 1292
0.14974999 20.10474968 7.21649981 80 65 94 1457
0.14974999 20.10350037 7.21799994 80 65 94 1717
0.14974999 20.10000038 7.21799994 93 80 108 1760
0.14974999 20.09925079 7.22074986 93 80 108 4450
0.14974999 20.09849930 7.22149992 93 80 108 8282
0.14974999 20.09749985 7.22224998 93 80 108 13882
0.14974999 20.09824944 7.22349977 93 80 108 20546
0.14974999 20.09950066 7.22499990 93 80 108 25821
0.14974999 20.09675026 7.22499990 93 80 108 29950
0.14974999 20.09675026 7.22625017 145 134 164 32492
0.14974999 20.09524918 7.22674990 145 134 164 34000
0.14974999 20.09600067 7.22800016 145 134 164 33882
0.14974999 20.09749985 7.22949982 145 134 164 34007
0.14974999 20.09700012 7.23050022 145 134 164 33296
0.14974999 20.09600067 7.23124981 145 134 164 34125
0.14974999 20.09625053 7.23250008 145 134 164 34492
0.14974999 20.09424973 7.23274994 145 134 164 35257
0.14974999 20.09524918 7.23400021 145 134 164 36471
0.14974999 20.09300041 7.23449993 197 192 215 35650
0.14974999 20.09300041 7.23549986 197 192 215 34742
0.14974999 20.09449959 7.23699999 197 192 215 33764
0.14974999 20.09275055 7.23750019 197 192 215 33760
0.14974999 20.09275055 7.23850012 197 192 215 34617
0.14974999 20.09350014 7.23974991 197 192 215 35653
0.14974999 20.09174919 7.24025011 197 192 215 37325
0.14974999 20.09174919 7.24125004 197 192 215 37471
0.14974999 20.09124947 7.24224997 197 192 215 36467
0.14974999 20.09025002 7.24300003 201 203 218 36328
0.14974999 20.09074974 7.24399996 201 203 218 35385
0.14950000 20.08824921 7.24424982 201 203 218 36053
0.14950000 20.08925056 7.24574995 201 203 218 35517
0.14950000 20.08975029 7.24700022 201 203 218 35517
0.14950000 20.08699989 7.24700022 201 203 218 35253
0.14950000 20.08975029 7.24900007 201 203 218 35653
0.14950000 20.08850098 7.24975014 201 203 218 35517
0.14950000 20.08650017 7.25024986 201 203 218 34489
0.14950000 20.08724976 7.25150013 207 209 221 34003
0.14950000 20.08349991 7.25124979 207 209 221 32057
0.14950000 20.08550072 7.25299978 207 209 221 31114
0.14950000 20.08550072 7.25400019 207 209 221 28778
0.14950000 20.08749962 7.25575018 207 209 221 25210
0.14950000 20.08625031 7.25650024 207 209 221 20196
0.14950000 20.08525085 7.25699997 207 209 221 14342
0.14950000 20.08399963 7.25775003 207 209 221 9989
0.14950000 20.08374977 7.25874996 207 209 221 6857
0.14950000 20.08149910 7.25899982 183 183 195 4607
0.14950000 20.08449936 7.26100016 183 183 195 3200
0.14950000 20.07999992 7.26175022 183 183 195 2000
0.14950000 20.08200073 7.26450014 183 183 195 1500
0.14950000 20.07975006 7.26700020 130 126 140 1375
0.14950000 20.07699966 7.27124977 130 126 140 1171
0.14950000 20.07875061 7.27400017 130 126 140 1125
0.14950000 20.07349968 7.27400017 130 126 140 1171
0.14950000 20.07525063 7.27575016 90 82 97 1239
0.14950000 20.07550049 7.27699995 90 82 97 1207
0.14950000 20.07074928 7.28499985 81 68 85 975
0.15075000 20.11199951 7.19950008 83 64 92 1089
0.15075000 20.10849953 7.19925022 83 64 92 1050
0.15075000 20.10750008 7.20225000 84 68 95 1157
0.15075000 20.10675049 7.20300007 84 68 95 1221
0.15075000 20.10625076 7.20900011 84 68 95 1310
0.15075000 20.10474968 7.21175003 80 65 94 1292
0.15075000 20.10074997 7.21974993 93 80 108 2903
0.15075000 20.09950066 7.22049999 93 80 108 4950
0.15050000 20.09874916 7.22224998 93 80 108 14789
0.15075000 20.10000038 7.22375011 93 80 108 21617
0.15050000 20.09874916 7.22424984 93 80 108 27532
0.15050000 20.09724998 7.22475004 93 80 108 30235
0.15075000 20.09925079 7.22674990 145 134 164 32392
0.15050000 20.09849930 7.22749996 145 134 164 34007
0.15050000 20.09700012 7.22800016 145 134 164 34621
0.15050000 20.09724998 7.22900009 145 134 164 34746
0.15050000 20.09625053 7.23000002 145 134 164 34371
0.15050000 20.09675026 7.23099995 145 134 164 34621
0.15050000 20.09524918 7.23175001 145 134 164 34371
0.15050000 20.09499931 7.23274994 145 134 164 34492
0.15050000 20.09524918 7.23374987 145 134 164 35653
0.15050000 20.09350014 7.23425007 197 192 215 35782
0.15050000 20.09300041 7.23500013 197 192 215 35385
0.15050000 20.09300041 7.23600006 197 192 215 34371
0.15050000 20.09275055 7.23699999 197 192 215 33171
0.15050000 20.09300041 7.23824978 197 192 215 34003
0.15050000 20.09300041 7.23925018 197 192 215 36471
0.15050000 20.09225082 7.23999977 197 192 215 37764
0.15050000 20.09025002 7.24049997 197 192 215 38678
0.15050000 20.09325027 7.24249983 197 192 215 37039
0.15050000 20.09174919 7.24300003 201 203 218 36889
0.15050000 20.09174919 7.24424982 201 203 218 36610
0.15050000 20.09074974 7.24499989 201 203 218 36057
0.15050000 20.08950043 7.24550009 201 203 218 37178
0.15050000 20.08925056 7.24650002 201 203 218 36467
0.15050000 20.08799934 7.24725008 201 203 218 36189
0.15050000 20.08799934 7.24825001 201 203 218 35782
0.15050000 20.08724976 7.24900007 201 203 218 36189
0.15050000 20.08525085 7.24949980 201 203 218 34992
0.15050000 20.08724976 7.25124979 207 209 221 34489
0.15050000 20.08675003 7.25199986 207 209 221 33521
0.15050000 20.08625031 7.25299978 207 209 221 32721
0.15050000 20.08699989 7.25425005 207 209 221 31639
0.15050000 20.08575058 7.25475025 207 209 221 29857
0.15050000 20.08625031 7.25600004 207 209 221 26610
0.15050000 20.08374977 7.25624990 207 209 221 21225
0.15050000 20.08200073 7.25675011 207 209 221 15357
0.15050000 20.08374977 7.25825024 207 209 221 11092
0.15050000 20.08149910 7.25850010 183 183 195 7432
0.15050000 20.08374977 7.26049995 183 183 195 4860
0.15050000 20.08074951 7.26149988 183 183 195 2564
0.15050000 20.08099937 7.26275015 183 183 195 2128
0.15050000 20.08049965 7.26375008 183 183 195 1817
0.15050000 20.07950020 7.26550007 183 183 195 1475
0.15050000 20.07749939 7.26800013 130 126 140 1400
0.15050000 20.07299995 7.27775002 90 82 97 1203
0.15050000 20.07500076 7.28175020 90 82 97 992
0.15050000 20.07125092 7.28249979 90 82 97 1203
0.15150000 20.11274910 7.19675016 83 64 92 1042
0.15150000 20.11025047 7.19700003 83 64 92 957
0.15150000 20.10725021 7.19824982 83 64 92 1075
0.15150000 20.11100006 7.20275021 84 68 95 1189
0.15150000 20.10874939 7.20300007 84 68 95 1203
0.15150000 20.10574913 7.20524979 84 68 95 1125
0.15150000 20.10424995 7.20574999 84 68 95 1203
0.15150000 20.10400009 7.21075010 80 65 94 1292
0.15150000 20.10199928 7.21325016 80 65 94 1457
0.15150000 20.10099983 7.21724987 80 65 94 2039
0.15150000 20.10300064 7.21999979 93 80 108 3696
0.15150000 20.10074997 7.22025013 93 80 108 6700
0.15150000 20.10149956 7.22149992 93 80 108 11314
0.15150000 20.10074997 7.22224998 93 80 108 18589
0.15150000 20.09925079 7.22300005 93 80 108 24750
0.15150000 20.09799957 7.22349977 93 80 108 29039
0.15150000 20.09799957 7.22450018 93 80 108 31221
0.15150000 20.09824944 7.22550011 93 80 108 32496
0.15150000 20.09650040 7.22599983 145 134 164 33292
0.15150000 20.09774971 7.22749996 145 134 164 33525
0.15150000 20.09724998 7.22849989 145 134 164 34746
0.15150000 20.09600067 7.22900009 145 134 164 35125
0.15150000 20.09625053 7.23024988 145 134 164 34492
0.15150000 20.09600067 7.23124981 145 134 164 34246
0.15150000 20.09550095 7.23199987 145 134 164 35521
0.15150000 20.09550095 7.23325014 145 134 164 36060
0.15150000 20.09424973 7.23374987 145 134 164 37032
0.15150000 20.09275055 7.23425007 197 192 215 35914
0.15150000 20.09199905 7.23500013 197 192 215 34614
0.15150000 20.09250069 7.23624992 197 192 215 33292
0.15150000 20.09199905 7.23724985 197 192 215 34242
0.15150000 20.09225082 7.23824978 197 192 215 35785
0.15150000 20.09424973 7.23999977 197 192 215 37621
0.15150000 20.09199905 7.24025011 197 192 215 37764
0.15150000 20.09300041 7.24174976 197 192 215 37475
0.15150000 20.09300041 7.24275017 197 192 215 37475
0.15150000 20.09199905 7.24349976 201 203 218 37035
0.15150000 20.09000015 7.24375010 201 203 218 37914
0.15150000 20.09099960 7.24525023 201 203 218 38067
0.15150000 20.08950043 7.24574995 201 203 218 37614
0.15150000 20.08950043 7.24674988 201 203 218 36750
0.15150000 20.08824921 7.24749994 201 203 218 36607
0.15150000 20.08699989 7.24800014 201 203 218 36053
0.15150000 20.08875084 7.24975014 201 203 218 35653
0.15150000 20.08799934 7.25075006 201 203 218 35125
0.15150000 20.08875084 7.25199986 207 209 221 35260
0.15150000 20.08550072 7.25199986 207 209 221 34614
0.15150000 20.08575058 7.25299978 207 209 221 33878
0.15150000 20.08749962 7.25475025 207 209 221 32946
0.15150000 20.08650017 7.25549984 207 209 221 30717
0.15150000 20.08474922 7.25575018 207 209 221 27850
0.15150000 20.08449936 7.25675011 207 209 221 23882
0.15150000 20.08399963 7.25775003 207 209 221 18692
0.15150000 20.08325005 7.25850010 207 209 221 14046
0.15150000 20.08200073 7.25899982 183 183 195 9639
0.15125000 20.08074951 7.25974989 183 183 195 6146
0.15150000 20.08300018 7.26149988 183 183 195 4207
0.15150000 20.08424950 7.26324987 183 183 195 3046
0.15125000 20.08024979 7.26275015 183 183 195 2235
0.15150000 20.08250046 7.26475000 183 183 195 1964
0.15125000 20.07975006 7.27425003 130 126 140 1089
0.15125000 20.07774925 7.27449989 130 126 140 992
0.15125000 20.07550049 7.27699995 90 82 97 1196
0.15125000 20.07449913 7.28424978 81 68 85 1171
0.15250000 20.11050034 7.19899988 83 64 92 1157
0.15250000 20.10924911 7.20275021 84 68 95 1153
0.15250000 20.10149956 7.21175003 80 65 94 1400
0.15250000 20.10424995 7.21374989 80 65 94 1360
0.15250000 20.10400009 7.21474981 80 65 94 1521
0.15250000 20.10149956 7.21700001 80 65 94 2057
0.15250000 20.10124969 7.21799994 93 80 108 2342
0.15250000 20.10250092 7.22049999 93 80 108 6864
0.15250000 20.10099983 7.22100019 93 80 108 12425
0.15250000 20.10000038 7.22174978 93 80 108 18517
0.15250000 20.10099983 7.22300005 93 80 108 24625
0.15250000 20.09874916 7.22324991 93 80 108 28021
0.15250000 20.10000038 7.22475004 93 80 108 30432
0.15250000 20.09724998 7.22499990 93 80 108 31532
0.15250000 20.09899902 7.22650003 145 134 164 31960
0.15250000 20.09799957 7.22725010 145 134 164 33410
0.15250000 20.09700012 7.22800016 145 134 164 33521
0.15250000 20.09774971 7.22924995 145 134 164 35653
0.15250000 20.09550095 7.22975016 145 134 164 35125
0.15250000 20.09424973 7.23024988 145 134 164 34742
0.15250000 20.09499931 7.23150015 145 134 164 34617
0.15250000 20.09600067 7.23299980 145 134 164 35789
0.15250000 20.09499931 7.23374987 145 134 164 36192
0.15250000 20.09474945 7.23449993 197 192 215 36060
0.15250000 20.09499931 7.23575020 197 192 215 35521
0.15250000 20.09275055 7.23600006 197 192 215 33760
0.15250000 20.09174919 7.23675013 197 192 215 33760
0.15250000 20.09424973 7.23874998 197 192 215 34875
0.15250000 20.09124947 7.23850012 197 192 215 36053
0.15250000 20.09074974 7.23950005 197 192 215 36885
0.15250000 20.08925056 7.23999977 197 192 215 36882
0.15250000 20.09049988 7.24149990 197 192 215 38064
0.15250000 20.09174919 7.24324989 201 203 218 37917
0.15250000 20.09099960 7.24399996 201 203 218 38221
0.15250000 20.08875084 7.24424982 201 203 218 38367
0.15250000 20.09025002 7.24574995 201 203 218 38371
0.15250000 20.08900070 7.24650002 201 203 218 36885
0.15250000 20.08925056 7.24774981 201 203 218 36189
0.15225001 20.08749962 7.24800014 201 203 218 36053
0.15225001 20.08650017 7.24875021 201 203 218 35914
0.15250000 20.08799934 7.25024986 201 203 218 36467
0.15250000 20.08774948 7.25150013 207 209 221 37325
0.15225001 20.08525085 7.25150013 207 209 221 36603
0.15225001 20.08575058 7.25274992 207 209 221 36746
0.15225001 20.08550072 7.25374985 207 209 221 35257
0.15225001 20.08650017 7.25500011 207 209 221 33171
0.15225001 20.08600044 7.25600004 207 209 221 31532
0.15225001 20.08525085 7.25675011 207 209 221 29671
0.15225001 20.08349991 7.25724983 207 209 221 27292
0.15225001 20.08499908 7.25874996 207 209 221 21964
0.15225001 20.08374977 7.25950003 183 183 195 15864
0.15225001 20.08149910 7.25974989 183 183 195 11114
0.15225001 20.07975006 7.26025009 183 183 195 7439
0.15225001 20.08049965 7.26149988 183 183 195 4828
0.15225001 20.08250046 7.26424980 183 183 195 2514
0.15225001 20.07950020 7.26550007 183 183 195 1803
0.15225001 20.08250046 7.26749992 183 183 195 1589
0.15225001 20.08149910 7.27024984 130 126 140 1500
0.15225001 20.07625008 7.27150011 130 126 140 1164
0.15225001 20.07424927 7.27400017 130 126 140 1100
0.15225001 20.07799911 7.27649975 90 82 97 1132
0.15225001 20.07150078 7.28275013 90 82 97 1089
0.15350001 20.10874939 7.19549990 83 64 92 1075
0.15350001 20.11000061 7.20025015 83 64 92 1132
0.15350001 20.10700035 7.20450020 84 68 95 1182
0.15350001 20.10424995 7.20674992 84 68 95 1235
0.15350001 20.10700035 7.20975018 84 68 95 1267
0.15350001 20.10549927 7.21024990 80 65 94 1353
0.15350001 20.10300064 7.21474981 80 65 94 1660
0.15350001 20.10449982 7.21624994 80 65 94 1824
0.15350001 20.10275078 7.21775007 80 65 94 3125
0.15350001 20.10099983 7.21925020 93 80 108 9610
0.15350001 20.10050011 7.22025013 93 80 108 16385
0.15350001 20.10000038 7.22100019 93 80 108 22746
0.15350001 20.10199928 7.22375011 93 80 108 30053
0.15324999 20.09874916 7.22375011 93 80 108 31221
0.15324999 20.09749985 7.22424984 93 80 108 31739
0.15324999 20.09675026 7.22499990 93 80 108 31953
0.15324999 20.09824944 7.22674990 145 134 164 33060
0.15324999 20.09650040 7.22725010 145 134 164 33292
0.15324999 20.09575081 7.22800016 145 134 164 33639
0.15324999 20.09550095 7.22875023 145 134 164 34489
0.15324999 20.09675026 7.23050022 145 134 164 34746
0.15324999 20.09350014 7.23024988 145 134 164 35646
0.15324999 20.09499931 7.23199987 145 134 164 35917
0.15324999 20.09375000 7.23250008 145 134 164 36328
0.15324999 20.09250069 7.23325014 145 134 164 35253
0.15324999 20.09575081 7.23549986 197 192 215 34875
0.15324999 20.09275055 7.23525000 197 192 215 34121
0.15324999 20.09199905 7.23600006 197 192 215 34614
0.15324999 20.09099960 7.23675013 197 192 215 34867
0.15324999 20.09300041 7.23850012 197 192 215 36192
0.15324999 20.09074974 7.23874998 197 192 215 35914
0.15324999 20.08975029 7.23950005 197 192 215 37028
0.15324999 20.09174919 7.24125004 197 192 215 37764
0.15324999 20.09124947 7.24224997 197 192 215 38067
0.15324999 20.09074974 7.24300003 201 203 218 37471
0.15324999 20.09099960 7.24424982 201 203 218 37325
0.15324999 20.08950043 7.24475002 201 203 218 36189
0.15324999 20.09025002 7.24599981 201 203 218 35521
0.15324999 20.08900070 7.24674988 201 203 218 34242
0.15324999 20.08799934 7.24749994 201 203 218 35121
0.15324999 20.08724976 7.24825001 201 203 218 35514
0.15324999 20.08774948 7.24949980 201 203 218 37178
0.15324999 20.08774948 7.25050020 201 203 218 37471
0.15324999 20.08850098 7.25199986 207 209 221 38371
0.15324999 20.08724976 7.25250006 207 209 221 37325
0.15324999 20.08650017 7.25325012 207 209 221 36885
0.15324999 20.08724976 7.25475025 207 209 221 36057
0.15324999 20.08325005 7.25425005 207 209 221 33875
0.15324999 20.08499908 7.25600004 207 209 221 32607
0.15324999 20.08474922 7.25699997 207 209 221 31324
0.15324999 20.08474922 7.25799990 207 209 221 28517
0.15324999 20.08374977 7.25874996 207 209 221 24492
0.15324999 20.08325005 7.25950003 183 183 195 19453
0.15324999 20.08275032 7.26049995 183 183 195 14628
0.15324999 20.08300018 7.26175022 183 183 195 10039
0.15324999 20.08374977 7.26300001 183 183 195 6710
0.15324999 20.07850075 7.26450014 183 183 195 2332
0.15324999 20.08149910 7.26650000 183 183 195 1971
0.15324999 20.07724953 7.27024984 130 126 140 1253
0.15324999 20.07850075 7.27174997 130 126 140 1292
0.15324999 20.07475090 7.27349997 130 126 140 1067
0.15324999 20.07600021 7.27600002 90 82 97 1278
0.15324999 20.07324982 7.27624989 90 82 97 1146
0.15324999 20.07674980 7.27850008 90 82 97 1221
0.15324999 20.07200050 7.28125000 90 82 97 1039
0.15324999 20.07150078 7.28399992 81 68 85 1164
0.15449999 20.11375046 7.19575024 83 64 92 975
0.15449999 20.11000061 7.19549990 83 64 92 1017
0.15449999 20.11199951 7.20050001 83 64 92 1017
0.15425000 20.10650063 7.20174980 84 68 95 1157
0.15425000 20.10549927 7.20249987 84 68 95 1082
0.15449999 20.10700035 7.20499992 84 68 95 1267
0.15449999 20.10899925 7.20774984 84 68 95 1267
0.15425000 20.10275078 7.21099997 80 65 94 1285
0.15425000 20.10400009 7.21250010 80 65 94 1375
0.15425000 20.10574913 7.21425009 80 65 94 1564
0.15425000 20.10074997 7.21350002 80 65 94 1721
0.15425000 20.10375023 7.21675014 80 65 94 2560
0.15425000 20.10050011 7.21775007 93 80 108 6535
0.15425000 20.10149956 7.21899986 93 80 108 11621
0.15425000 20.10174942 7.22025013 93 80 108 18696
0.15425000 20.09975052 7.22049999 93 80 108 26389
0.15425000 20.10124969 7.22224998 93 80 108 30242
0.15425000 20.10025024 7.22275019 93 80 108 31535
0.15425000 20.09874916 7.22324991 93 80 108 32496
0.15425000 20.09874916 7.22450018 93 80 108 33175
0.15425000 20.09849930 7.22525024 93 80 108 33764
0.15425000 20.09700012 7.22599983 145 134 164 33760
0.15425000 20.09625053 7.22674990 145 134 164 33521
0.15425000 20.09749985 7.22825003 145 134 164 34621
0.15425000 20.09524918 7.22849989 145 134 164 34367
0.15425000 20.09824944 7.23075008 145 134 164 34750
0.15425000 20.09600067 7.23099995 145 134 164 34617
0.15425000 20.09650040 7.23225021 145 134 164 34496
0.15425000 20.09424973 7.23250008 145 134 164 34996
0.15425000 20.09399986 7.23350000 145 134 164 36328
0.15425000 20.09300041 7.23400021 197 192 215 35650
0.15425000 20.09424973 7.23549986 197 192 215 34746
0.15425000 20.09250069 7.23600006 197 192 215 34996
0.15425000 20.09350014 7.23724985 197 192 215 34746
0.15425000 20.09250069 7.23799992 197 192 215 35385
0.15425000 20.09025002 7.23824978 197 192 215 35646
0.15425000 20.09124947 7.23974991 197 192 215 37032
0.15425000 20.08875084 7.23999977 197 192 215 38060
0.15425000 20.08925056 7.24125004 197 192 215 37910
0.15425000 20.09174919 7.24324989 201 203 218 37471
0.15425000 20.09124947 7.24399996 201 203 218 36332
0.15425000 20.09049988 7.24475002 201 203 218 35125
0.15425000 20.09049988 7.24599981 201 203 218 34492
0.15425000 20.09025002 7.24700022 201 203 218 35128
0.15425000 20.08875084 7.24749994 201 203 218 36746
0.15425000 20.08724976 7.24800014 201 203 218 37175
0.15425000 20.08699989 7.24900007 201 203 218 37910
0.15425000 20.08875084 7.25050020 201 203 218 37914
0.15425000 20.08875084 7.25274992 207 209 221 37328
0.15425000 20.08799934 7.25349998 207 209 221 36750
0.15425000 20.08724976 7.25425005 207 209 221 35260
0.15425000 20.08449936 7.25425005 207 209 221 33878
0.15425000 20.08474922 7.25549984 207 209 221 34000
0.15425000 20.08699989 7.25724983 207 209 221 33410
0.15425000 20.08575058 7.25799990 207 209 221 32832
