//X Y Z R G B Intensity
6.43300009 8.63549995 -0.04225000 194 206 218 20789.000000
6.43350029 8.63599968 -0.04175000 194 206 218 19964.000000
6.43300009 8.63549995 -0.04125000 194 206 218 20407.000000
6.43300009 8.63574982 -0.04075000 200 212 224 19964.000000
6.43324995 8.63574982 -0.04025000 200 212 224 20257.000000
6.43200016 8.63424969 -0.03975000 200 212 224 21028.000000
6.43274975 8.63525009 -0.03925000 200 212 224 21028.000000
6.43274975 8.63500023 -0.03875000 200 212 224 21028.000000
6.43225002 8.63450050 -0.03825000 200 212 224 20871.000000
6.43200016 8.63424969 -0.03725000 200 212 224 20410.000000
6.43274975 8.63500023 -0.03775000 200 212 224 20635.000000
6.43099976 8.63299942 -0.03675000 200 212 224 20185.000000
6.43175030 8.63374996 -0.03625000 203 211 222 20410.000000
6.43274975 8.63525009 -0.03575000 203 211 222 20789.000000
6.43225002 8.63450050 -0.03525000 203 211 222 20950.000000
6.43200016 8.63399982 -0.03475000 203 211 222 20789.000000
6.43125010 8.63325024 -0.03425000 203 211 222 20714.000000
6.43125010 8.63299942 -0.03375000 203 211 222 20792.000000
6.43225002 8.63475037 -0.03325000 203 211 222 21353.000000
6.43175030 8.63399982 -0.03275000 203 211 222 21689.000000
6.43249989 8.63500023 -0.03225000 203 211 222 22035.000000
6.43149996 8.63350010 -0.03175000 198 202 214 21271.000000
6.43175030 8.63374996 -0.03125000 198 202 214 21189.000000
6.43225002 8.63450050 -0.03075000 198 202 214 21110.000000
6.43074989 8.63249969 -0.03025000 198 202 214 20482.000000
6.43074989 8.63249969 -0.02975000 198 202 214 20635.000000
6.43149996 8.63350010 -0.02925000 198 202 214 20039.000000
6.42999983 8.63175011 -0.02875000 198 202 214 20039.000000
6.42999983 8.63150024 -0.02825000 198 202 214 19682.000000
6.43050003 8.63199997 -0.02775000 198 202 214 19135.000000
6.42850018 8.62949944 -0.02725000 206 205 219 18942.000000
6.42950010 8.63074970 -0.02675000 206 205 219 18500.000000
6.42950010 8.63074970 -0.02625000 206 205 219 18560.000000
6.42999983 8.63150024 -0.02575000 206 205 219 18253.000000
6.42950010 8.63074970 -0.02525000 206 205 219 17842.000000
6.42950010 8.63074970 -0.02475000 206 205 219 17728.000000
6.42950010 8.63074970 -0.02425000 206 205 219 16964.000000
6.42899990 8.63024998 -0.02375000 206 205 219 16510.000000
6.42875004 8.62975025 -0.02325000 206 205 219 16221.000000
6.43050003 8.63224983 -0.02275000 212 209 226 15235.000000
6.42974997 8.63100052 -0.02225000 212 209 226 13896.000000
6.42950010 8.63074970 -0.02175000 212 209 226 11642.000000
6.42974997 8.63125038 -0.02125000 212 209 226 9292.000000
6.42974997 8.63125038 -0.02075000 212 209 226 7382.000000
6.42950010 8.63100052 -0.02025000 212 209 226 5653.000000
6.42899990 8.63024998 -0.01975000 212 209 226 4164.000000
6.42850018 8.62924957 -0.01925000 212 209 226 3110.000000
6.43025017 8.63175011 -0.01875000 212 209 226 2553.000000
6.42924976 8.63049984 -0.01825000 190 189 205 2021.000000
6.43225002 8.63450050 -0.01775000 190 189 205 1789.000000
6.43050003 8.63224983 -0.01725000 190 189 205 1610.000000
6.42500019 8.62475014 -0.01675000 190 189 205 1400.000000
6.42824984 8.62924957 -0.01625000 190 189 205 1225.000000
6.42675018 8.62724972 -0.01550000 190 189 205 1164.000000
6.42675018 8.62724972 -0.01500000 190 189 205 1085.000000
6.43225002 8.63450050 -0.01475000 190 189 205 1089.000000
6.42649984 8.62674999 -0.01425000 190 189 205 1082.000000
6.43175030 8.63374996 -0.01375000 144 143 157 1060.000000
6.43274975 8.63525009 -0.01325000 144 143 157 1010.000000
6.42850018 8.62924957 -0.01275000 144 143 157 1028.000000
6.42950010 8.63100052 -0.01225000 144 143 157 964.000000
6.42649984 8.62674999 -0.01175000 144 143 157 975.000000
6.42649984 8.62674999 -0.01100000 144 143 157 964.000000
6.42899990 8.63024998 -0.01050000 144 143 157 917.000000
6.42974997 8.63125038 -0.01000000 144 143 157 967.000000
6.42350006 8.62275028 -0.00950000 144 143 157 996.000000
6.42449999 8.62400055 -0.00900000 100 102 115 1071.000000
6.42775011 8.62849998 -0.00850000 100 102 115 1085.000000
6.43074989 8.63249969 -0.00800000 100 102 115 1089.000000
6.42799997 8.62874985 -0.00750000 100 102 115 1110.000000
6.42474985 8.62450027 -0.00700000 100 102 115 1096.000000
6.43249989 8.63500023 -0.00650000 100 102 115 1110.000000
6.42649984 8.62699986 -0.00600000 100 102 115 1067.000000
6.43200016 8.63424969 -0.00550000 100 102 115 1035.000000
6.43175030 8.63374996 -0.00500000 79 81 94 1042.000000
6.42600012 8.62625027 -0.00450000 79 81 94 1089.000000
6.42474985 8.62450027 -0.00400000 79 81 94 1067.000000
6.42374992 8.62325001 -0.00350000 79 81 94 1060.000000
6.42850018 8.62949944 -0.00300000 79 81 94 1064.000000
6.42675018 8.62699986 -0.00250000 79 81 94 1107.000000
6.42850018 8.62949944 -0.00200000 79 81 94 1103.000000
6.42600012 8.62625027 -0.00150000 79 81 94 1121.000000
6.42700005 8.62750053 -0.00100000 79 81 94 1078.000000
6.42449999 8.62400055 -0.00050000 86 82 99 1021.000000
6.42649984 8.62699986 0.00000000 86 82 99 1078.000000
6.42875004 8.62975025 0.00025000 86 82 99 1132.000000
6.42675018 8.62724972 0.00075000 86 82 99 1182.000000
6.42775011 8.62874985 0.00125000 86 82 99 1246.000000
6.43149996 8.63350010 0.00175000 86 82 99 1289.000000
6.42624998 8.62674999 0.00225000 86 82 99 1375.000000
6.42749977 8.62825012 0.00275000 86 82 99 1428.000000
6.42500019 8.62475014 0.00325000 86 82 99 1417.000000
6.42350006 8.62275028 0.00375000 107 100 118 1407.000000
6.42474985 8.62450027 0.00425000 107 100 118 1514.000000
6.42775011 8.62874985 0.00475000 107 100 118 1614.000000
6.42749977 8.62825012 0.00525000 107 100 118 1875.000000
6.42600012 8.62599945 0.00575000 107 100 118 2353.000000
6.42325020 8.62249947 0.00625000 107 100 118 3092.000000
6.42425013 8.62374973 0.00675000 107 100 118 4292.000000
6.42399979 8.62325001 0.00725000 107 100 118 5835.000000
6.42399979 8.62349987 0.00775000 107 100 118 7757.000000
6.42299986 8.62199974 0.00825000 151 147 162 10475.000000
6.42325020 8.62224960 0.00875000 151 147 162 12657.000000
6.42374992 8.62300014 0.00925000 151 147 162 14792.000000
6.42500019 8.62475014 0.00975000 151 147 162 16271.000000
6.42449999 8.62425041 0.01025000 151 147 162 17396.000000
6.42449999 8.62400055 0.01075000 151 147 162 18017.000000
6.42374992 8.62325001 0.01125000 151 147 162 18814.000000
6.42425013 8.62374973 0.01175000 151 147 162 18946.000000
6.42350006 8.62275028 0.01225000 151 147 162 19142.000000
6.42449999 8.62400055 0.01275000 200 197 214 19900.000000
6.42425013 8.62400055 0.01325000 200 197 214 19971.000000
6.42449999 8.62400055 0.01375000 200 197 214 20042.000000
6.42374992 8.62325001 0.01425000 200 197 214 19900.000000
6.42425013 8.62400055 0.01475000 200 197 214 20335.000000
6.42350006 8.62275028 0.01525000 200 197 214 20721.000000
6.42350006 8.62275028 0.01575000 200 197 214 20953.000000
6.42474985 8.62450027 0.01625000 200 197 214 21035.000000
6.42399979 8.62349987 0.01675000 200 197 214 20264.000000
6.42224979 8.62125015 0.01725000 216 219 234 20339.000000
6.42299986 8.62199974 0.01775000 216 219 234 19478.000000
6.42275000 8.62199974 0.01825000 216 219 234 19828.000000
6.42350006 8.62275028 0.01875000 216 219 234 19900.000000
6.42325020 8.62249947 0.01925000 216 219 234 19478.000000
6.42250013 8.62150002 0.01975000 216 219 234 19278.000000
6.42224979 8.62100029 0.02050000 216 219 234 18814.000000
6.42175007 8.62024975 0.02100000 216 219 234 19971.000000
6.42275000 8.62199974 0.02150000 216 219 234 20046.000000
6.42299986 8.62224960 0.02200000 203 210 226 19900.000000
6.42399979 8.62325001 0.02250000 203 210 226 20117.000000
6.42224979 8.62125015 0.02300000 203 210 226 19550.000000
6.42250013 8.62125015 0.02350000 203 210 226 19278.000000
6.42175007 8.62050056 0.02400000 203 210 226 19760.000000
6.42299986 8.62224960 0.02450000 203 210 226 19828.000000
6.42124987 8.61975002 0.02550000 203 210 226 20339.000000
6.42150021 8.61999989 0.02500000 203 210 226 20046.000000
6.42150021 8.62024975 0.02600000 203 210 226 20642.000000
6.42250013 8.62150002 0.02650000 192 206 219 20721.000000
6.42124987 8.61999989 0.02700000 192 206 219 20721.000000
6.42224979 8.62125015 0.02750000 192 206 219 21117.000000
6.42175007 8.62024975 0.02800000 192 206 219 20878.000000
6.42199993 8.62100029 0.02850000 192 206 219 21278.000000
6.42199993 8.62075043 0.02900000 192 206 219 20417.000000
6.42150021 8.61999989 0.02950000 192 206 219 20264.000000
6.42124987 8.61975002 0.03000000 192 206 219 19971.000000
6.42199993 8.62100029 0.03050000 192 206 219 20192.000000
6.42049980 8.61874962 0.03100000 196 212 225 20489.000000
6.42100000 8.61950016 0.03150000 196 212 225 20567.000000
6.42124987 8.61975002 0.03200000 196 212 225 20800.000000
6.42150021 8.61999989 0.03250000 196 212 225 20957.000000
6.42049980 8.61874962 0.03300000 196 212 225 20800.000000
6.42049980 8.61899948 0.03350000 196 212 225 21278.000000
6.42124987 8.61950016 0.03400000 196 212 225 21953.000000
6.42100000 8.61950016 0.03450000 196 212 225 21867.000000
6.42100000 8.61950016 0.03500000 196 212 225 20957.000000
6.41975021 8.61775017 0.03550000 199 213 222 20878.000000
6.42124987 8.61999989 0.03600000 199 213 222 21200.000000
6.42100000 8.61950016 0.03650000 199 213 222 21360.000000
6.42024994 8.61849976 0.03700000 199 213 222 21360.000000
6.41975021 8.61800003 0.03750000 199 213 222 21278.000000
6.42000008 8.61824989 0.03800000 199 213 222 20646.000000
6.41975021 8.61775017 0.03850000 199 213 222 20492.000000
6.41874981 8.61649990 0.03900000 199 213 222 20267.000000
6.41925001 8.61700058 0.03950000 199 213 222 19903.000000
6.41825008 8.61575031 0.04000000 209 212 217 19975.000000
6.41874981 8.61649990 0.04050000 209 212 217 19692.000000
6.41849995 8.61600018 0.04100000 209 212 217 19282.000000
6.41800022 8.61524963 0.04150000 209 212 217 19760.000000
6.41874981 8.61649990 0.04200000 209 212 217 19078.000000
6.41825008 8.61549950 0.04250000 209 212 217 19014.000000
6.41825008 8.61575031 0.04300000 209 212 217 18078.000000
6.41825008 8.61575031 0.04350000 209 212 217 17289.000000
6.41825008 8.61575031 0.04400000 223 209 208 15675.000000
6.41874981 8.61625004 0.04450000 223 209 208 13796.000000
6.41774988 8.61524963 0.04500000 223 209 208 11407.000000
6.41650009 8.61324978 0.04550000 223 209 208 9114.000000
6.41599989 8.61275005 0.04600000 223 209 208 6714.000000
6.42075014 8.61800003 -0.07375000 101 88 106 646.000000
6.42425013 8.62300014 -0.07350000 101 88 106 689.000000
6.41975021 8.61674976 -0.07275000 101 88 106 739.000000
6.41424990 8.60949993 -0.07225000 101 88 106 832.000000
6.41375017 8.60875034 -0.07175000 116 97 119 1096.000000
6.41750002 8.61400032 -0.07125000 116 97 119 1403.000000
6.41800022 8.61474991 -0.07075000 116 97 119 1714.000000
6.41949987 8.61649990 -0.07050000 116 97 119 2003.000000
6.41774988 8.61425018 -0.06975000 116 97 119 2232.000000
6.41800022 8.61450005 -0.06925000 116 97 119 2339.000000
6.42000008 8.61725044 -0.06875000 116 97 119 2596.000000
6.42000008 8.61725044 -0.06825000 116 97 119 2707.000000
6.41674995 8.61275005 -0.06775000 116 97 119 2546.000000
6.42075014 8.61849976 -0.06725000 108 90 114 2500.000000
6.41825008 8.61499977 -0.06675000 108 90 114 2442.000000
6.42075014 8.61824989 -0.06625000 108 90 114 2489.000000
6.42049980 8.61800003 -0.06575000 108 90 114 2339.000000
6.41900015 8.61600018 -0.06525000 108 90 114 2014.000000
6.43674994 8.63974953 -0.06050000 117 105 127 6525.000000
6.43725014 8.64050007 -0.06000000 117 105 127 9767.000000
6.43575001 8.63850021 -0.05950000 117 105 127 12653.000000
6.43599987 8.63899994 -0.05900000 152 149 166 14549.000000
6.43774986 8.64099979 -0.05850000 152 149 166 16553.000000
6.43650007 8.63924980 -0.05800000 152 149 166 18310.000000
6.43575001 8.63850021 -0.05750000 152 149 166 19610.000000
6.43599987 8.63850021 -0.05700000 152 149 166 19964.000000
6.43624973 8.63924980 -0.05650000 152 149 166 19750.000000
6.43525028 8.63774967 -0.05600000 152 149 166 19892.000000
6.43575001 8.63850021 -0.05550000 152 149 166 20035.000000
6.43599987 8.63875008 -0.05500000 152 149 166 20257.000000
6.43674994 8.63974953 -0.05450000 185 191 205 20257.000000
6.43499994 8.63749981 -0.05375000 185 191 205 20407.000000
6.43475008 8.63700008 -0.05350000 185 191 205 20635.000000
6.43575001 8.63825035 -0.05300000 185 191 205 20557.000000
6.43575001 8.63825035 -0.05250000 185 191 205 21107.000000
6.43550014 8.63800049 -0.05200000 185 191 205 21267.000000
6.43550014 8.63825035 -0.05100000 185 191 205 21857.000000
6.43700027 8.64000034 -0.05150000 185 191 205 21603.000000
6.43475008 8.63700008 -0.05050000 185 191 205 21689.000000
6.43400002 8.63624954 -0.05000000 194 204 216 21689.000000
6.43550014 8.63800049 -0.04950000 194 204 216 21267.000000
6.43550014 8.63800049 -0.04900000 194 204 216 21189.000000
6.43424988 8.63649940 -0.04850000 194 204 216 20789.000000
6.43400002 8.63599968 -0.04800000 194 204 216 20871.000000
6.43525028 8.63800049 -0.04750000 194 204 216 21107.000000
6.43449974 8.63675022 -0.04675000 194 204 216 20789.000000
6.43350029 8.63549995 -0.04625000 194 204 216 20946.000000
6.43525028 8.63774967 -0.04575000 194 204 216 21107.000000
6.43475008 8.63700008 -0.04525000 194 206 218 21517.000000
6.43525028 8.63774967 -0.04475000 194 206 218 21603.000000
6.43449974 8.63649940 -0.04425000 194 206 218 21107.000000
6.43324995 8.63500023 -0.04375000 194 206 218 20789.000000
6.43375015 8.63574982 -0.04325000 194 206 218 20482.000000
6.43375015 8.63574982 -0.04275000 194 206 218 20714.000000
6.43424988 8.63649940 -0.04225000 194 206 218 20332.000000
6.43324995 8.63525009 -0.04125000 194 206 218 20257.000000
6.43424988 8.63649940 -0.04175000 194 206 218 20257.000000
6.43350029 8.63525009 -0.04075000 200 212 224 20332.000000
6.43274975 8.63424969 -0.04025000 200 212 224 20714.000000
6.43300009 8.63475037 -0.03975000 200 212 224 20789.000000
6.43375015 8.63574982 -0.03925000 200 212 224 20714.000000
6.43375015 8.63574982 -0.03875000 200 212 224 20557.000000
6.43350029 8.63549995 -0.03825000 200 212 224 20332.000000
6.43099976 8.63224983 -0.03775000 200 212 224 20635.000000
6.43300009 8.63450050 -0.03725000 200 212 224 20560.000000
6.43225002 8.63374996 -0.03675000 200 212 224 20257.000000
6.43225002 8.63374996 -0.03625000 203 211 222 20482.000000
6.43200016 8.63325024 -0.03575000 203 211 222 20789.000000
6.43175030 8.63325024 -0.03525000 203 211 222 20482.000000
6.43099976 8.63199997 -0.03475000 203 211 222 20039.000000
6.43274975 8.63424969 -0.03425000 203 211 222 20257.000000
6.43175030 8.63299942 -0.03375000 203 211 222 20635.000000
6.43225002 8.63374996 -0.03325000 203 211 222 21271.000000
6.43225002 8.63350010 -0.03275000 203 211 222 21110.000000
6.43200016 8.63350010 -0.03225000 203 211 222 21435.000000
6.43200016 8.63325024 -0.03175000 198 202 214 21189.000000
6.43274975 8.63450050 -0.03125000 198 202 214 21603.000000
6.43200016 8.63325024 -0.03075000 198 202 214 21521.000000
6.43274975 8.63424969 -0.03025000 198 202 214 21271.000000
6.43074989 8.63150024 -0.02975000 198 202 214 20792.000000
6.43099976 8.63199997 -0.02925000 198 202 214 20639.000000
6.42950010 8.63024998 -0.02875000 198 202 214 20114.000000
6.43050003 8.63125038 -0.02825000 198 202 214 19542.000000
6.42950010 8.63000011 -0.02775000 198 202 214 19203.000000
6.43025017 8.63100052 -0.02700000 206 205 219 18875.000000
6.43025017 8.63100052 -0.02650000 206 205 219 18875.000000
6.43025017 8.63100052 -0.02600000 206 205 219 18314.000000
6.42899990 8.62949944 -0.02550000 206 205 219 18435.000000
6.42974997 8.63024998 -0.02500000 206 205 219 18314.000000
6.43025017 8.63100052 -0.02450000 206 205 219 17842.000000
6.42924976 8.62949944 -0.02400000 206 205 219 17842.000000
6.43099976 8.63199997 -0.02350000 206 205 219 17667.000000
6.43050003 8.63150024 -0.02300000 212 209 226 17392.000000
6.42999983 8.63074970 -0.02250000 212 209 226 16707.000000
6.43050003 8.63125038 -0.02200000 212 209 226 14864.000000
6.42999983 8.63074970 -0.02150000 212 209 226 12775.000000
6.43074989 8.63175011 -0.02125000 212 209 226 10757.000000
6.42974997 8.63049984 -0.02050000 212 209 226 8935.000000
6.42950010 8.63000011 -0.02000000 212 209 226 6892.000000
6.42924976 8.62975025 -0.01950000 212 209 226 5171.000000
6.42999983 8.63074970 -0.01900000 212 209 226 3939.000000
6.42999983 8.63074970 -0.01850000 190 189 205 3135.000000
6.42999983 8.63074970 -0.01800000 190 189 205 2585.000000
6.42924976 8.62975025 -0.01750000 190 189 205 2089.000000
6.43050003 8.63125038 -0.01700000 190 189 205 1792.000000
6.43149996 8.63249969 -0.01650000 190 189 205 1550.000000
6.43175030 8.63325024 -0.01600000 190 189 205 1364.000000
6.42549992 8.62450027 -0.01550000 190 189 205 1221.000000
6.42824984 8.62849998 -0.01500000 190 189 205 1160.000000
6.42624998 8.62574959 -0.01450000 190 189 205 1028.000000
6.42875004 8.62899971 -0.01400000 144 143 157 1089.000000
6.42824984 8.62825012 -0.01350000 144 143 157 1067.000000
6.43249989 8.63399982 -0.01300000 144 143 157 1050.000000
6.42824984 8.62825012 -0.01250000 144 143 157 1042.000000
6.42899990 8.62949944 -0.01200000 144 143 157 946.000000
6.43099976 8.63199997 -0.01150000 144 143 157 946.000000
6.43550014 8.63825035 -0.01100000 144 143 157 942.000000
6.42449999 8.62349987 -0.01050000 144 143 157 946.000000
6.42775011 8.62750053 -0.01000000 144 143 157 1007.000000
6.42850018 8.62874985 -0.00950000 100 102 115 1017.000000
6.42775011 8.62750053 -0.00900000 100 102 115 1053.000000
6.43099976 8.63175011 -0.00850000 100 102 115 1092.000000
6.42875004 8.62899971 -0.00800000 100 102 115 1078.000000
6.42799997 8.62800026 -0.00750000 100 102 115 1092.000000
6.42724991 8.62699986 -0.00700000 100 102 115 1089.000000
6.43074989 8.63150024 -0.00650000 100 102 115 1100.000000
6.42299986 8.62125015 -0.00600000 100 102 115 1089.000000
6.43175030 8.63325024 -0.00550000 100 102 115 1067.000000
6.42399979 8.62249947 -0.00500000 79 81 94 1050.000000
6.42199993 8.61975002 -0.00450000 79 81 94 1117.000000
6.42500019 8.62400055 -0.00400000 79 81 94 1060.000000
6.42724991 8.62699986 -0.00350000 79 81 94 1071.000000
6.43074989 8.63175011 -0.00300000 79 81 94 1121.000000
6.42824984 8.62825012 -0.00250000 79 81 94 1089.000000
6.42399979 8.62275028 -0.00200000 79 81 94 1082.000000
6.42899990 8.62924957 -0.00150000 79 81 94 1064.000000
6.42875004 8.62899971 -0.00100000 79 81 94 1078.000000
6.42724991 8.62699986 -0.00050000 86 82 99 1089.000000
6.42675018 8.62625027 0.00000000 86 82 99 1092.000000
6.42574978 8.62500000 0.00025000 86 82 99 1128.000000
6.42724991 8.62699986 0.00075000 86 82 99 1214.000000
6.42724991 8.62699986 0.00125000 86 82 99 1278.000000
6.42600012 8.62524986 0.00175000 86 82 99 1307.000000
6.42624998 8.62549973 0.00225000 86 82 99 1357.000000
6.42374992 8.62224960 0.00275000 86 82 99 1421.000000
6.43025017 8.63100052 0.00325000 86 82 99 1496.000000
6.42525005 8.62425041 0.00375000 107 100 118 1489.000000
6.42749977 8.62750053 0.00450000 107 100 118 1607.000000
6.42700005 8.62650013 0.00500000 107 100 118 1982.000000
6.42574978 8.62500000 0.00550000 107 100 118 2496.000000
6.42399979 8.62275028 0.00600000 107 100 118 3300.000000
6.42449999 8.62349987 0.00650000 107 100 118 4535.000000
6.42325020 8.62150002 0.00700000 107 100 118 6385.000000
6.42525005 8.62425041 0.00750000 107 100 118 8417.000000
6.42449999 8.62325001 0.00800000 107 100 118 10889.000000
6.42449999 8.62325001 0.00825000 151 147 162 12746.000000
6.42399979 8.62275028 0.00875000 151 147 162 14710.000000
6.42449999 8.62325001 0.00925000 151 147 162 16364.000000
6.42500019 8.62400055 0.00975000 151 147 162 17507.000000
6.42449999 8.62349987 0.01025000 151 147 162 18196.000000
6.42399979 8.62275028 0.01075000 151 147 162 18628.000000
6.42425013 8.62300014 0.01125000 151 147 162 18814.000000
6.42374992 8.62249947 0.01175000 151 147 162 19207.000000
6.42374992 8.62224960 0.01250000 151 147 162 19550.000000
6.42449999 8.62325001 0.01300000 200 197 214 19828.000000
6.42425013 8.62300014 0.01350000 200 197 214 19900.000000
6.42399979 8.62275028 0.01400000 200 197 214 20264.000000
6.42525005 8.62425041 0.01450000 200 197 214 20414.000000
6.42449999 8.62300014 0.01500000 200 197 214 20489.000000
6.42500019 8.62400055 0.01550000 200 197 214 20796.000000
6.42449999 8.62349987 0.01600000 200 197 214 21114.000000
6.42500019 8.62400055 0.01650000 200 197 214 21114.000000
6.42449999 8.62325001 0.01700000 200 197 214 20796.000000
6.42425013 8.62300014 0.01750000 216 219 234 20564.000000
6.42399979 8.62275028 0.01800000 216 219 234 20564.000000
6.42374992 8.62224960 0.01850000 216 219 234 20721.000000
6.42299986 8.62125015 0.01900000 216 219 234 20489.000000
6.42325020 8.62174988 0.01950000 216 219 234 19971.000000
6.42325020 8.62174988 0.02000000 216 219 234 19689.000000
6.42350006 8.62199974 0.02050000 216 219 234 19550.000000
6.42325020 8.62150002 0.02100000 216 219 234 19900.000000
6.42275000 8.62100029 0.02150000 216 219 234 20264.000000
6.42299986 8.62125015 0.02200000 203 210 226 19828.000000
6.42275000 8.62100029 0.02250000 203 210 226 19971.000000
6.42175007 8.61950016 0.02300000 203 210 226 19971.000000
6.42299986 8.62100029 0.02350000 203 210 226 19689.000000
6.42150021 8.61925030 0.02400000 203 210 226 20117.000000
6.42175007 8.61950016 0.02450000 203 210 226 20046.000000
6.42199993 8.61999989 0.02500000 203 210 226 21200.000000
6.42100000 8.61874962 0.02550000 203 210 226 21035.000000
6.42250013 8.62050056 0.02600000 203 210 226 20796.000000
6.42199993 8.61975002 0.02650000 192 206 219 20878.000000
6.42299986 8.62150002 0.02700000 192 206 219 21360.000000
6.42199993 8.61999989 0.02750000 192 206 219 21278.000000
6.42224979 8.62050056 0.02800000 192 206 219 21278.000000
6.42224979 8.62024975 0.02850000 192 206 219 21360.000000
6.42250013 8.62050056 0.02900000 192 206 219 20957.000000
6.42250013 8.62050056 0.02950000 192 206 219 20642.000000
6.42199993 8.61999989 0.03000000 192 206 219 20489.000000
6.42224979 8.62024975 0.03050000 192 206 219 19689.000000
6.42124987 8.61899948 0.03100000 196 212 225 20046.000000
6.42124987 8.61899948 0.03150000 196 212 225 20642.000000
6.42024994 8.61775017 0.03200000 196 212 225 21039.000000
6.42175007 8.61950016 0.03250000 196 212 225 21035.000000
6.42075014 8.61824989 0.03300000 196 212 225 20878.000000
6.42175007 8.61975002 0.03350000 196 212 225 20878.000000
6.42150021 8.61925030 0.03400000 196 212 225 21200.000000
6.42199993 8.61999989 0.03450000 196 212 225 21360.000000
6.42100000 8.61874962 0.03500000 199 213 222 21200.000000
6.42199993 8.61975002 0.03550000 199 213 222 20878.000000
6.42049980 8.61800003 0.03600000 199 213 222 20800.000000
6.42150021 8.61925030 0.03650000 199 213 222 21360.000000
6.42250013 8.62075043 0.03700000 199 213 222 21117.000000
6.41975021 8.61700058 0.03750000 199 213 222 21200.000000
6.42000008 8.61750031 0.03800000 199 213 222 20646.000000
6.42024994 8.61750031 0.03850000 199 213 222 20567.000000
6.42075014 8.61824989 0.03900000 199 213 222 20489.000000
6.41975021 8.61674976 0.03950000 209 212 217 20121.000000
6.41949987 8.61649990 0.04000000 209 212 217 19760.000000
6.41800022 8.61450005 0.04050000 209 212 217 19553.000000
6.41900015 8.61575031 0.04100000 209 212 217 19210.000000
6.41925001 8.61649990 0.04150000 209 212 217 19482.000000
6.41825008 8.61499977 0.04200000 209 212 217 19414.000000
6.42000008 8.61725044 0.04250000 209 212 217 19482.000000
6.41925001 8.61649990 0.04300000 209 212 217 18950.000000
6.41800022 8.61474991 0.04350000 209 212 217 17453.000000
6.41949987 8.61674976 0.04400000 223 209 208 16178.000000
6.41925001 8.61625004 0.04450000 223 209 208 14910.000000
6.41825008 8.61499977 0.04500000 223 209 208 12542.000000
6.41774988 8.61425018 0.04550000 223 209 208 9775.000000
6.41825008 8.61499977 0.04600000 223 209 208 7249.000000
6.41825008 8.61375046 -0.07350000 101 88 106 1007.000000
6.41949987 8.61575031 -0.07400000 101 88 106 957.000000
6.41949987 8.61575031 -0.07300000 101 88 106 1082.000000
6.41475010 8.60949993 -0.07250000 101 88 106 1182.000000
6.41800022 8.61350060 -0.07200000 116 97 119 1425.000000
6.41900015 8.61499977 -0.07150000 116 97 119 1678.000000
6.41774988 8.61350060 -0.07100000 116 97 119 1900.000000
6.41900015 8.61499977 -0.07050000 116 97 119 2075.000000
6.42199993 8.61874962 -0.07000000 116 97 119 2425.000000
6.42075014 8.61725044 -0.06950000 116 97 119 2639.000000
6.42000008 8.61649990 -0.06900000 116 97 119 2796.000000
6.42024994 8.61649990 -0.06850000 116 97 119 2660.000000
6.41975021 8.61600018 -0.06800000 116 97 119 2664.000000
6.42000008 8.61649990 -0.06750000 108 90 114 2607.000000
6.41650009 8.61149979 -0.06700000 108 90 114 2496.000000
6.42024994 8.61649990 -0.06650000 108 90 114 2442.000000
6.42124987 8.61824989 -0.06600000 108 90 114 2228.000000
6.42100000 8.61775017 -0.06550000 108 90 114 1960.000000
6.43624973 8.63800049 -0.06050000 117 105 127 7189.000000
6.43750000 8.63974953 -0.06000000 117 105 127 10510.000000
6.43700027 8.63899994 -0.05950000 117 105 127 13132.000000
6.43700027 8.63899994 -0.05900000 152 149 166 15192.000000
6.43700027 8.63899994 -0.05850000 152 149 166 16603.000000
6.43700027 8.63924980 -0.05800000 152 149 166 18432.000000
6.43650007 8.63850021 -0.05750000 152 149 166 19000.000000
6.43674994 8.63875008 -0.05700000 152 149 166 19400.000000
6.43599987 8.63774967 -0.05650000 152 149 166 20035.000000
6.43674994 8.63875008 -0.05600000 152 149 166 19817.000000
6.43674994 8.63875008 -0.05550000 152 149 166 20328.000000
6.43650007 8.63825035 -0.05500000 152 149 166 20407.000000
6.43475008 8.63624954 -0.05450000 185 191 205 20482.000000
6.43599987 8.63774967 -0.05400000 185 191 205 20110.000000
6.43650007 8.63850021 -0.05350000 185 191 205 19960.000000
6.43599987 8.63800049 -0.05300000 185 191 205 20867.000000
6.43700027 8.63899994 -0.05250000 185 191 205 20867.000000
6.43674994 8.63875008 -0.05200000 185 191 205 21107.000000
6.43624973 8.63800049 -0.05150000 185 191 205 21685.000000
6.43624973 8.63825035 -0.05100000 185 191 205 22032.000000
6.43599987 8.63774967 -0.05050000 185 191 205 21942.000000
6.43599987 8.63774967 -0.05000000 194 204 216 21771.000000
6.43725014 8.63949966 -0.04950000 194 204 216 21603.000000
6.43650007 8.63825035 -0.04900000 194 204 216 21189.000000
6.43499994 8.63649940 -0.04850000 194 204 216 21107.000000
6.43550014 8.63724995 -0.04800000 194 204 216 21350.000000
6.43449974 8.63599968 -0.04750000 194 204 216 20789.000000
6.43575001 8.63724995 -0.04700000 194 204 216 21603.000000
6.43475008 8.63624954 -0.04650000 194 204 216 20635.000000
6.43499994 8.63649940 -0.04600000 194 204 216 20946.000000
6.43499994 8.63649940 -0.04550000 194 206 218 21189.000000
6.43400002 8.63500023 -0.04500000 194 206 218 20714.000000
6.43499994 8.63649940 -0.04450000 194 206 218 20557.000000
6.43375015 8.63500023 -0.04375000 194 206 218 20482.000000
6.43375015 8.63500023 -0.04325000 194 206 218 21028.000000
6.43424988 8.63549995 -0.04275000 194 206 218 20789.000000
6.43424988 8.63549995 -0.04225000 194 206 218 21189.000000
6.43475008 8.63624954 -0.04175000 194 206 218 20789.000000
6.43424988 8.63549995 -0.04125000 194 206 218 20714.000000
6.43400002 8.63500023 -0.04075000 200 212 224 20635.000000
6.43449974 8.63574982 -0.04025000 200 212 224 20407.000000
6.43475008 8.63624954 -0.03975000 200 212 224 19892.000000
6.43300009 8.63399982 -0.03925000 200 212 224 19753.000000
6.43350029 8.63450050 -0.03875000 200 212 224 19821.000000
6.43274975 8.63350010 -0.03825000 200 212 224 19896.000000
6.43300009 8.63374996 -0.03775000 200 212 224 19896.000000
6.43350029 8.63424969 -0.03725000 200 212 224 19896.000000
6.43274975 8.63350010 -0.03675000 200 212 224 19964.000000
6.43300009 8.63399982 -0.03625000 203 211 222 20407.000000
6.43274975 8.63350010 -0.03575000 203 211 222 20185.000000
6.43249989 8.63325024 -0.03525000 203 211 222 20185.000000
6.43200016 8.63249969 -0.03475000 203 211 222 19896.000000
6.43249989 8.63325024 -0.03425000 203 211 222 19964.000000
6.43225002 8.63274956 -0.03375000 203 211 222 20560.000000
6.43249989 8.63299942 -0.03325000 203 211 222 21110.000000
6.43300009 8.63374996 -0.03275000 203 211 222 20871.000000
6.43324995 8.63399982 -0.03225000 203 211 222 21028.000000
6.43300009 8.63374996 -0.03175000 198 202 214 20950.000000
6.43249989 8.63325024 -0.03125000 198 202 214 21353.000000
6.43274975 8.63350010 -0.03075000 198 202 214 20950.000000
6.43225002 8.63274956 -0.03025000 198 202 214 21028.000000
6.43149996 8.63199997 -0.02975000 198 202 214 21028.000000
6.43050003 8.63049984 -0.02925000 198 202 214 21032.000000
6.43125010 8.63150024 -0.02875000 198 202 214 20114.000000
6.43200016 8.63249969 -0.02825000 198 202 214 19542.000000
6.43149996 8.63175011 -0.02775000 198 202 214 18875.000000
6.43050003 8.63049984 -0.02725000 206 205 219 18875.000000
6.43125010 8.63125038 -0.02675000 206 205 219 18810.000000
6.43149996 8.63175011 -0.02625000 206 205 219 18685.000000
6.43050003 8.63049984 -0.02575000 206 205 219 18625.000000
6.43125010 8.63150024 -0.02525000 206 205 219 18810.000000
6.42999983 8.62975025 -0.02475000 206 205 219 18685.000000
6.43025017 8.63024998 -0.02425000 206 205 219 18625.000000
6.43050003 8.63049984 -0.02375000 206 205 219 19003.000000
6.43175030 8.63199997 -0.02325000 206 205 219 19135.000000
6.43050003 8.63049984 -0.02275000 212 209 226 18435.000000
6.43249989 8.63299942 -0.02225000 212 209 226 16707.000000
6.43074989 8.63074970 -0.02175000 212 209 226 14592.000000
6.43025017 8.63000011 -0.02125000 212 209 226 12714.000000
6.43050003 8.63049984 -0.02075000 212 209 226 10657.000000
6.43074989 8.63074970 -0.02025000 212 209 226 8467.000000
6.43099976 8.63125038 -0.01975000 212 209 226 6575.000000
6.42950010 8.62924957 -0.01925000 212 209 226 5171.000000
6.42924976 8.62899971 -0.01875000 212 209 226 3778.000000
6.42924976 8.62874985 -0.01825000 190 189 205 2992.000000
6.43074989 8.63074970 -0.01775000 190 189 205 2500.000000
6.43025017 8.63000011 -0.01725000 190 189 205 2014.000000
6.42850018 8.62775040 -0.01675000 190 189 205 1696.000000
6.43025017 8.63024998 -0.01625000 190 189 205 1439.000000
6.42724991 8.62625027 -0.01575000 190 189 205 1346.000000
6.42474985 8.62300014 -0.01525000 190 189 205 1167.000000
6.43125010 8.63150024 -0.01475000 190 189 205 1153.000000
6.42574978 8.62425041 -0.01400000 190 189 205 1178.000000
6.43050003 8.63049984 -0.01350000 144 143 157 1100.000000
6.42500019 8.62300014 -0.01300000 144 143 157 1082.000000
6.43225002 8.63274956 -0.01250000 144 143 157 1021.000000
6.42999983 8.62949944 -0.01200000 144 143 157 957.000000
6.42875004 8.62800026 -0.01150000 144 143 157 903.000000
6.42875004 8.62800026 -0.01100000 144 143 157 932.000000
6.42374992 8.62125015 -0.01050000 144 143 157 946.000000
6.43350029 8.63424969 -0.01000000 144 143 157 1007.000000
6.43050003 8.63024998 -0.00950000 100 102 115 1078.000000
6.42899990 8.62825012 -0.00900000 100 102 115 1096.000000
6.42924976 8.62874985 -0.00850000 100 102 115 1071.000000
6.42500019 8.62300014 -0.00800000 100 102 115 1092.000000
6.42549992 8.62374973 -0.00750000 100 102 115 1089.000000
6.43324995 8.63424969 -0.00700000 100 102 115 1039.000000
6.42649984 8.62524986 -0.00650000 100 102 115 1053.000000
6.42749977 8.62625027 -0.00600000 100 102 115 1032.000000
6.42600012 8.62450027 -0.00550000 100 102 115 1067.000000
6.42899990 8.62849998 -0.00500000 79 81 94 1010.000000
6.43225002 8.63274956 -0.00450000 79 81 94 1057.000000
6.42724991 8.62599945 -0.00400000 79 81 94 1071.000000
6.43050003 8.63049984 -0.00350000 79 81 94 1125.000000
6.42724991 8.62599945 -0.00300000 79 81 94 1071.000000
6.42824984 8.62750053 -0.00250000 79 81 94 1096.000000
6.42675018 8.62524986 -0.00200000 79 81 94 1035.000000
6.42924976 8.62874985 -0.00150000 79 81 94 1050.000000
6.42275000 8.61999989 -0.00100000 79 81 94 1010.000000
6.42775011 8.62674999 -0.00050000 86 82 99 1089.000000
6.42850018 8.62775040 0.00000000 86 82 99 1103.000000
6.42374992 8.62125015 0.00025000 86 82 99 1175.000000
6.42775011 8.62699986 0.00125000 86 82 99 1285.000000
6.43125010 8.63150024 0.00075000 86 82 99 1200.000000
6.43099976 8.63100052 0.00175000 86 82 99 1325.000000
6.43074989 8.63100052 0.00225000 86 82 99 1428.000000
6.42649984 8.62524986 0.00275000 86 82 99 1392.000000
6.43050003 8.63024998 0.00325000 86 82 99 1453.000000
6.42624998 8.62475014 0.00375000 107 100 118 1567.000000
6.42399979 8.62174988 0.00425000 107 100 118 1842.000000
6.42675018 8.62524986 0.00475000 107 100 118 2442.000000
6.42624998 8.62475014 0.00525000 107 100 118 3185.000000
6.42675018 8.62549973 0.00575000 107 100 118 4503.000000
6.42525005 8.62325001 0.00625000 107 100 118 6242.000000
6.42549992 8.62349987 0.00675000 107 100 118 8035.000000
6.42600012 8.62450027 0.00725000 107 100 118 10435.000000
6.42474985 8.62275028 0.00775000 107 100 118 12571.000000
6.42549992 8.62374973 0.00825000 151 147 162 14328.000000
6.42374992 8.62125015 0.00875000 151 147 162 15989.000000
6.42474985 8.62249947 0.00925000 151 147 162 17285.000000
6.42449999 8.62249947 0.00975000 151 147 162 18075.000000
6.42525005 8.62325001 0.01075000 151 147 162 18503.000000
6.42500019 8.62300014 0.01025000 151 147 162 18439.000000
6.42500019 8.62300014 0.01125000 151 147 162 18946.000000
6.42525005 8.62349987 0.01175000 151 147 162 19007.000000
6.42600012 8.62450027 0.01225000 151 147 162 19900.000000
6.42374992 8.62125015 0.01275000 200 197 214 19617.000000
6.42525005 8.62349987 0.01325000 200 197 214 20117.000000
6.42525005 8.62349987 0.01375000 200 197 214 20189.000000
6.42500019 8.62325001 0.01425000 200 197 214 20489.000000
6.42600012 8.62425041 0.01475000 200 197 214 20717.000000
6.42525005 8.62349987 0.01525000 200 197 214 20642.000000
6.42500019 8.62300014 0.01575000 200 197 214 21278.000000
6.42374992 8.62150002 0.01625000 200 197 214 21782.000000
6.42449999 8.62224960 0.01675000 200 197 214 21864.000000
6.42449999 8.62249947 0.01725000 216 219 234 21696.000000
6.42399979 8.62174988 0.01775000 216 219 234 22042.000000
6.42399979 8.62174988 0.01850000 216 219 234 21442.000000
6.42399979 8.62174988 0.01900000 216 219 234 20796.000000
6.42449999 8.62249947 0.01950000 216 219 234 20564.000000
6.42374992 8.62125015 0.02000000 216 219 234 20264.000000
6.42299986 8.62024975 0.02100000 216 219 234 19903.000000
6.42350006 8.62100029 0.02050000 216 219 234 19971.000000
6.42374992 8.62150002 0.02150000 216 219 234 19617.000000
6.42374992 8.62150002 0.02200000 203 210 226 19757.000000
6.42350006 8.62125015 0.02250000 203 210 226 19757.000000
6.42275000 8.62024975 0.02300000 203 210 226 19903.000000
6.42250013 8.61950016 0.02350000 203 210 226 19971.000000
6.42399979 8.62174988 0.02400000 203 210 226 20339.000000
6.42350006 8.62100029 0.02450000 203 210 226 20489.000000
6.42275000 8.62024975 0.02500000 203 210 226 21035.000000
6.42275000 8.62024975 0.02550000 203 210 226 21035.000000
6.42275000 8.61999989 0.02600000 203 210 226 21035.000000
6.42325020 8.62050056 0.02650000 192 206 219 21035.000000
6.42275000 8.61999989 0.02700000 192 206 219 21117.000000
6.42250013 8.61975002 0.02750000 192 206 219 21360.000000
6.42425013 8.62199974 0.02800000 192 206 219 21117.000000
6.42299986 8.62024975 0.02850000 192 206 219 20957.000000
6.42250013 8.61950016 0.02900000 192 206 219 20878.000000
6.42175007 8.61874962 0.02950000 192 206 219 20267.000000
6.42224979 8.61950016 0.03000000 192 206 219 20192.000000
6.42175007 8.61874962 0.03050000 192 206 219 19971.000000
6.42175007 8.61874962 0.03100000 196 212 225 20117.000000
6.42325020 8.62075043 0.03150000 196 212 225 20567.000000
6.42150021 8.61824989 0.03200000 196 212 225 20567.000000
6.42100000 8.61775017 0.03250000 196 212 225 20878.000000
6.42124987 8.61800003 0.03300000 196 212 225 20489.000000
6.42175007 8.61874962 0.03350000 196 212 225 20339.000000
6.42150021 8.61824989 0.03400000 196 212 225 20721.000000
6.42175007 8.61849976 0.03450000 196 212 225 20721.000000
6.42175007 8.61874962 0.03500000 196 212 225 20567.000000
6.42075014 8.61750031 0.03550000 199 213 222 20957.000000
6.42100000 8.61775017 0.03600000 199 213 222 20489.000000
6.42124987 8.61800003 0.03650000 199 213 222 20878.000000
6.42150021 8.61824989 0.03700000 199 213 222 20646.000000
6.42175007 8.61849976 0.03750000 199 213 222 20878.000000
6.42049980 8.61700058 0.03800000 199 213 222 20192.000000
6.42024994 8.61649990 0.03850000 199 213 222 20267.000000
6.42049980 8.61700058 0.03900000 199 213 222 20046.000000
6.41975021 8.61600018 0.03950000 199 213 222 19760.000000
6.42000008 8.61625004 0.04000000 209 212 217 19550.000000
6.41900015 8.61499977 0.04050000 209 212 217 19078.000000
6.42000008 8.61625004 0.04100000 209 212 217 19210.000000
6.42000008 8.61649990 0.04150000 209 212 217 19346.000000
6.41949987 8.61549950 0.04200000 209 212 217 19621.000000
6.41925001 8.61524963 0.04250000 209 212 217 19346.000000
6.41975021 8.61600018 0.04300000 209 212 217 18753.000000
6.41949987 8.61549950 0.04350000 209 212 217 17907.000000
6.41925001 8.61524963 0.04400000 209 212 217 17128.000000
6.41874981 8.61474991 0.04450000 223 209 208 15675.000000
6.41849995 8.61425018 0.04500000 223 209 208 13796.000000
6.42000008 8.61625004 0.04550000 223 209 208 11221.000000
6.41900015 8.61499977 0.04600000 223 209 208 8432.000000
6.41874981 8.61474991 0.04650000 223 209 208 6150.000000
6.41550016 8.60949993 -0.07400000 101 88 106 1164.000000
6.42049980 8.61625004 -0.07350000 101 88 106 1182.000000
6.41900015 8.61450005 -0.07300000 101 88 106 1303.000000
6.41599989 8.61025047 -0.07225000 101 88 106 1475.000000
6.41750002 8.61199951 -0.07175000 116 97 119 1650.000000
6.41975021 8.61524963 -0.07150000 116 97 119 1914.000000
6.42000008 8.61549950 -0.07100000 116 97 119 2078.000000
6.41925001 8.61474991 -0.07025000 116 97 119 2260.000000
6.41800022 8.61275005 -0.06975000 116 97 119 2500.000000
6.41975021 8.61524963 -0.06925000 116 97 119 2700.000000
6.41975021 8.61524963 -0.06875000 116 97 119 2703.000000
6.42100000 8.61700058 -0.06825000 116 97 119 2678.000000
6.42075014 8.61649990 -0.06775000 116 97 119 2635.000000
6.42075014 8.61674976 -0.06725000 108 90 114 2614.000000
6.41750002 8.61225033 -0.06675000 108 90 114 2478.000000
6.42049980 8.61600018 -0.06650000 108 90 114 2310.000000
6.41949987 8.61499977 -0.06575000 108 90 114 2117.000000
6.42075014 8.61649990 -0.06550000 108 90 114 1767.000000
6.43674994 8.63800049 -0.06050000 117 105 127 7932.000000
6.43599987 8.63700008 -0.06000000 117 105 127 11375.000000
6.43700027 8.63850021 -0.05950000 117 105 127 13721.000000
6.43674994 8.63800049 -0.05900000 152 149 166 15192.000000
6.43700027 8.63825035 -0.05850000 152 149 166 16703.000000
6.43650007 8.63774967 -0.05800000 152 149 166 17839.000000
6.43674994 8.63825035 -0.05750000 152 149 166 18742.000000
6.43700027 8.63825035 -0.05700000 152 149 166 19335.000000
6.43700027 8.63850021 -0.05650000 152 149 166 19817.000000
6.43624973 8.63749981 -0.05600000 152 149 166 20182.000000
6.43624973 8.63749981 -0.05550000 152 149 166 20328.000000
6.43650007 8.63774967 -0.05500000 152 149 166 20328.000000
6.43774986 8.63924980 -0.05450000 185 191 205 20632.000000
6.43624973 8.63724995 -0.05400000 185 191 205 19964.000000
6.43750000 8.63899994 -0.05350000 185 191 205 20478.000000
6.43674994 8.63825035 -0.05300000 185 191 205 20867.000000
6.43599987 8.63724995 -0.05250000 185 191 205 21517.000000
6.43700027 8.63850021 -0.05200000 185 191 205 21685.000000
6.43700027 8.63850021 -0.05150000 185 191 205 22121.000000
6.43650007 8.63749981 -0.05100000 185 191 205 22121.000000
6.43700027 8.63850021 -0.05050000 185 191 205 22121.000000
6.43650007 8.63774967 -0.05000000 194 204 216 21603.000000
6.43599987 8.63700008 -0.04950000 194 204 216 21350.000000
6.43525028 8.63599968 -0.04900000 194 204 216 21517.000000
6.43700027 8.63825035 -0.04850000 194 204 216 21189.000000
6.43575001 8.63675022 -0.04800000 194 204 216 21517.000000
6.43550014 8.63649940 -0.04750000 194 204 216 21189.000000
6.43575001 8.63675022 -0.04700000 194 204 216 21350.000000
6.43525028 8.63599968 -0.04650000 194 204 216 21271.000000
6.43449974 8.63525009 -0.04600000 194 204 216 21350.000000
6.43475008 8.63549995 -0.04550000 194 206 218 21350.000000
6.43525028 8.63624954 -0.04500000 194 206 218 20871.000000
6.43475008 8.63549995 -0.04450000 194 206 218 20557.000000
6.43424988 8.63475037 -0.04400000 194 206 218 20946.000000
6.43575001 8.63675022 -0.04350000 194 206 218 21107.000000
6.43449974 8.63500023 -0.04275000 194 206 218 21435.000000
6.43499994 8.63574982 -0.04225000 194 206 218 21435.000000
6.43499994 8.63574982 -0.04175000 194 206 218 21271.000000
6.43499994 8.63574982 -0.04125000 194 206 218 20710.000000
6.43350029 8.63374996 -0.04075000 200 212 224 20185.000000
6.43375015 8.63424969 -0.04025000 200 212 224 19896.000000
6.43424988 8.63475037 -0.03975000 200 212 224 19892.000000
6.43400002 8.63424969 -0.03925000 200 212 224 19542.000000
6.43375015 8.63399982 -0.03875000 200 212 224 19682.000000
6.43350029 8.63374996 -0.03825000 200 212 224 19610.000000
6.43350029 8.63350010 -0.03775000 200 212 224 19200.000000
6.43400002 8.63450050 -0.03725000 200 212 224 19964.000000
6.43375015 8.63399982 -0.03675000 200 212 224 20257.000000
6.43424988 8.63475037 -0.03625000 203 211 222 20557.000000
6.43400002 8.63424969 -0.03575000 203 211 222 20257.000000
6.43350029 8.63374996 -0.03525000 203 211 222 19610.000000
6.43324995 8.63350010 -0.03475000 203 211 222 19614.000000
6.43324995 8.63325024 -0.03425000 203 211 222 20332.000000
6.43350029 8.63350010 -0.03375000 203 211 222 20482.000000
6.43300009 8.63299942 -0.03325000 203 211 222 20635.000000
6.43300009 8.63299942 -0.03275000 203 211 222 20635.000000
6.43350029 8.63374996 -0.03225000 203 211 222 20635.000000
6.43249989 8.63224983 -0.03175000 198 202 214 20871.000000
6.43225002 8.63224983 -0.03125000 198 202 214 20871.000000
6.43274975 8.63274956 -0.03075000 198 202 214 21271.000000
6.43324995 8.63325024 -0.03025000 198 202 214 20950.000000
6.43249989 8.63224983 -0.02975000 198 202 214 21028.000000
6.43149996 8.63100052 -0.02925000 198 202 214 20260.000000
6.43324995 8.63350010 -0.02875000 198 202 214 19896.000000
6.43149996 8.63100052 -0.02825000 198 202 214 19271.000000
6.43074989 8.63024998 -0.02775000 198 202 214 19271.000000
6.43175030 8.63150024 -0.02725000 206 205 219 19135.000000
6.43149996 8.63100052 -0.02675000 206 205 219 19003.000000
6.43074989 8.63000011 -0.02625000 206 205 219 19071.000000
6.43099976 8.63049984 -0.02575000 206 205 219 19475.000000
6.43274975 8.63274956 -0.02525000 206 205 219 19271.000000
6.43074989 8.63000011 -0.02475000 206 205 219 19403.000000
6.43099976 8.63024998 -0.02425000 206 205 219 19403.000000
6.43099976 8.63024998 -0.02375000 206 205 219 19896.000000
6.43074989 8.63000011 -0.02325000 206 205 219 20114.000000
6.43149996 8.63100052 -0.02275000 212 209 226 19682.000000
6.43099976 8.63049984 -0.02225000 212 209 226 18560.000000
6.43149996 8.63100052 -0.02175000 212 209 226 16510.000000
6.43025017 8.62924957 -0.02125000 212 209 226 14592.000000
6.43074989 8.63000011 -0.02075000 212 209 226 12860.000000
6.43175030 8.63150024 -0.02025000 212 209 226 10735.000000
6.43149996 8.63100052 -0.01950000 212 209 226 8721.000000
6.43149996 8.63074970 -0.01900000 212 209 226 6678.000000
6.43025017 8.62924957 -0.01850000 190 189 205 4907.000000
6.43149996 8.63100052 -0.01800000 190 189 205 3935.000000
6.43099976 8.63049984 -0.01750000 190 189 205 3025.000000
6.42899990 8.62775040 -0.01700000 190 189 205 2421.000000
6.43025017 8.62949944 -0.01650000 190 189 205 1932.000000
6.43249989 8.63224983 -0.01600000 190 189 205 1703.000000
6.43200016 8.63175011 -0.01550000 190 189 205 1503.000000
6.43025017 8.62924957 -0.01500000 190 189 205 1285.000000
6.42974997 8.62874985 -0.01450000 190 189 205 1232.000000
6.42749977 8.62549973 -0.01400000 144 143 157 1178.000000
6.42999983 8.62899971 -0.01350000 144 143 157 1142.000000
6.42749977 8.62574959 -0.01300000 144 143 157 1096.000000
6.43099976 8.63024998 -0.01250000 144 143 157 1042.000000
6.42500019 8.62224960 -0.01200000 144 143 157 1000.000000
6.43274975 8.63249969 -0.01150000 144 143 157 939.000000
6.42574978 8.62349987 -0.01100000 144 143 157 882.000000
6.42724991 8.62524986 -0.01050000 144 143 157 917.000000
6.42474985 8.62174988 -0.01000000 144 143 157 1003.000000
6.42875004 8.62724972 -0.00950000 100 102 115 1082.000000
6.42700005 8.62500000 -0.00900000 100 102 115 1053.000000
6.43125010 8.63074970 -0.00850000 100 102 115 1014.000000
6.43074989 8.63000011 -0.00800000 100 102 115 982.000000
6.42175007 8.61800003 -0.00750000 100 102 115 1046.000000
6.42924976 8.62800026 -0.00700000 100 102 115 1057.000000
6.42600012 8.62374973 -0.00650000 100 102 115 1010.000000
6.42749977 8.62574959 -0.00600000 100 102 115 1025.000000
6.42749977 8.62549973 -0.00550000 100 102 115 1014.000000
6.43050003 8.62975025 -0.00500000 79 81 94 1078.000000
6.42924976 8.62800026 -0.00450000 79 81 94 1064.000000
6.43225002 8.63199997 -0.00400000 79 81 94 1042.000000
6.42150021 8.61775017 -0.00350000 79 81 94 1078.000000
6.42724991 8.62524986 -0.00300000 79 81 94 1032.000000
6.42924976 8.62775040 -0.00250000 79 81 94 1125.000000
6.42799997 8.62625027 -0.00200000 79 81 94 1021.000000
6.42850018 8.62699986 -0.00150000 79 81 94 1075.000000
6.42775011 8.62599945 -0.00100000 79 81 94 1039.000000
6.43099976 8.63024998 -0.00050000 86 82 99 1110.000000
6.42549992 8.62300014 0.00000000 86 82 99 1157.000000
6.42374992 8.62050056 0.00025000 86 82 99 1182.000000
6.42675018 8.62475014 0.00075000 86 82 99 1217.000000
6.42924976 8.62825012 0.00125000 86 82 99 1267.000000
6.42574978 8.62325001 0.00175000 86 82 99 1328.000000
6.42600012 8.62374973 0.00225000 86 82 99 1392.000000
6.42974997 8.62874985 0.00275000 86 82 99 1546.000000
6.42824984 8.62674999 0.00325000 86 82 99 1625.000000
6.42700005 8.62500000 0.00375000 107 100 118 1953.000000
6.42525005 8.62249947 0.00425000 107 100 118 2525.000000
6.42775011 8.62599945 0.00475000 107 100 118 3360.000000
6.42525005 8.62249947 0.00525000 107 100 118 4478.000000
6.42500019 8.62224960 0.00575000 107 100 118 6196.000000
6.42600012 8.62349987 0.00625000 107 100 118 8289.000000
6.42624998 8.62400055 0.00675000 107 100 118 10225.000000
6.42649984 8.62425041 0.00725000 107 100 118 12078.000000
6.42675018 8.62450027 0.00775000 107 100 118 14039.000000
6.42525005 8.62275028 0.00825000 151 147 162 15496.000000
6.42474985 8.62199974 0.00875000 151 147 162 16710.000000
6.42549992 8.62300014 0.00925000 151 147 162 17671.000000
6.42549992 8.62300014 0.00975000 151 147 162 18378.000000
6.42449999 8.62174988 0.01025000 151 147 162 18564.000000
6.42425013 8.62125015 0.01075000 151 147 162 18564.000000
6.42525005 8.62249947 0.01125000 151 147 162 18753.000000
6.42549992 8.62300014 0.01175000 151 147 162 19139.000000
6.42500019 8.62224960 0.01225000 151 147 162 19971.000000
6.42500019 8.62224960 0.01275000 200 197 214 20489.000000
6.42500019 8.62224960 0.01325000 200 197 214 20042.000000
6.42500019 8.62224960 0.01375000 200 197 214 19971.000000
6.42549992 8.62300014 0.01425000 200 197 214 20642.000000
6.42474985 8.62199974 0.01475000 200 197 214 20953.000000
6.42525005 8.62275028 0.01525000 200 197 214 21442.000000
6.42525005 8.62275028 0.01575000 200 197 214 22217.000000
6.42449999 8.62150002 0.01625000 200 197 214 22217.000000
6.42449999 8.62174988 0.01675000 200 197 214 22489.000000
6.42425013 8.62150002 0.01725000 216 219 234 22128.000000
6.42574978 8.62325001 0.01800000 216 219 234 21953.000000
6.42474985 8.62199974 0.01850000 216 219 234 21610.000000
6.42549992 8.62300014 0.01900000 216 219 234 20796.000000
6.42449999 8.62150002 0.01950000 216 219 234 21117.000000
6.42425013 8.62125015 0.02000000 216 219 234 20192.000000
6.42374992 8.62075043 0.02050000 216 219 234 20046.000000
6.42500019 8.62224960 0.02100000 216 219 234 20189.000000
6.42299986 8.61975002 0.02150000 216 219 234 19689.000000
6.42350006 8.62024975 0.02200000 203 210 226 20046.000000
6.42275000 8.61950016 0.02250000 203 210 226 20046.000000
6.42350006 8.62024975 0.02300000 203 210 226 20339.000000
6.42350006 8.61999989 0.02350000 203 210 226 19971.000000
6.42299986 8.61975002 0.02400000 203 210 226 20642.000000
6.42299986 8.61975002 0.02450000 203 210 226 20878.000000
