//X Y Z R G B Intensity
6.46049976 8.61425018 -0.02825000 208 203 223 20185.000000
6.46049976 8.61450005 -0.02725000 208 203 223 18314.000000
6.46125031 8.61524963 -0.02625000 208 203 223 14178.000000
6.46049976 8.61450005 -0.02525000 208 203 223 9307.000000
6.45975018 8.61350060 -0.02425000 189 177 199 5692.000000
6.45975018 8.61350060 -0.02325000 189 177 199 3221.000000
6.45874977 8.61199951 -0.02225000 189 177 199 1921.000000
6.46049976 8.61425018 -0.02125000 189 177 199 1432.000000
6.45825005 8.61149979 -0.02025000 141 126 149 1250.000000
6.46000004 8.61375046 -0.01925000 141 126 149 1225.000000
6.45975018 8.61324978 -0.01825000 141 126 149 1078.000000
6.45725012 8.61000061 -0.01725000 141 126 149 1032.000000
6.45749998 8.61025047 -0.01625000 141 126 149 1000.000000
6.45800018 8.61100006 -0.01525000 94 76 102 957.000000
6.46199989 8.61625004 -0.01425000 94 76 102 967.000000
6.45924997 8.61250019 -0.01325000 94 76 102 903.000000
6.45950031 8.61299992 -0.01225000 94 76 102 996.000000
6.45725012 8.61000061 -0.01125000 72 49 75 1021.000000
6.45825005 8.61124992 -0.01025000 72 49 75 1042.000000
6.45800018 8.61100006 -0.00925000 72 49 75 1014.000000
6.45374966 8.60550022 -0.00825000 72 49 75 960.000000
6.45725012 8.61000061 -0.00725000 72 49 75 932.000000
6.45450020 8.60650063 -0.00625000 83 55 77 889.000000
6.45450020 8.60624981 -0.00525000 83 55 77 842.000000
6.45349979 8.60474968 -0.00425000 83 55 77 817.000000
6.45674992 8.60925007 -0.00325000 83 55 77 817.000000
6.45549965 8.60774994 -0.00225000 83 54 74 817.000000
6.45600033 8.60824966 -0.00125000 83 54 74 889.000000
6.45725012 8.61000061 -0.00025000 83 54 74 964.000000
6.45725012 8.60974979 0.00050000 83 54 74 971.000000
6.45450020 8.60624981 0.00150000 83 54 74 950.000000
6.45450020 8.60650063 0.00250000 78 53 72 953.000000
6.45349979 8.60499954 0.00350000 78 53 72 1060.000000
6.45250034 8.60375023 0.00450000 78 53 72 1135.000000
6.45499992 8.60700035 0.00550000 78 53 72 1367.000000
6.45650005 8.60900021 0.00650000 78 60 76 1757.000000
6.45499992 8.60725021 0.00750000 78 60 76 2410.000000
6.45450020 8.60624981 0.00850000 78 60 76 3764.000000
6.45450020 8.60650063 0.00950000 78 60 76 6217.000000
6.45425034 8.60575008 0.01050000 78 60 76 9389.000000
6.45574999 8.60799980 0.01150000 105 92 109 13653.000000
6.45400000 8.60575008 0.01250000 105 92 109 16710.000000
6.45324993 8.60474968 0.01350000 105 92 109 18564.000000
6.45275021 8.60400009 0.01450000 105 92 109 18564.000000
6.45349979 8.60499954 0.01550000 156 150 164 18375.000000
6.45225000 8.60325050 0.01650000 156 150 164 18257.000000
6.45275021 8.60400009 0.01750000 156 150 164 19007.000000
6.45324993 8.60474968 0.01850000 156 150 164 19900.000000
6.45300007 8.60424995 0.01950000 156 150 164 20414.000000
6.45250034 8.60350037 0.02050000 197 195 209 20796.000000
6.45250034 8.60375023 0.02150000 197 195 209 21357.000000
6.45275021 8.60400009 0.02250000 197 195 209 20717.000000
6.45199966 8.60300064 0.02350000 197 195 209 20414.000000
6.45174980 8.60274982 0.02450000 209 211 224 20414.000000
6.45199966 8.60300064 0.02550000 209 211 224 20189.000000
6.45199966 8.60300064 0.02650000 209 211 224 19689.000000
6.45100021 8.60149956 0.02750000 209 211 224 19075.000000
6.45075035 8.60124969 0.02850000 209 211 224 19342.000000
6.45024967 8.60050011 0.02950000 210 214 226 19757.000000
6.45100021 8.60174942 0.03050000 210 214 226 20117.000000
6.44999981 8.60025024 0.03150000 210 214 226 19828.000000
6.45075035 8.60124969 0.03250000 210 214 226 20339.000000
6.45050001 8.60099983 0.03350000 201 205 216 20796.000000
6.45075035 8.60124969 0.03450000 201 205 216 20953.000000
6.44999981 8.60025024 0.03550000 201 205 216 20117.000000
6.44974995 8.60000038 0.03650000 201 205 216 19550.000000
6.44950008 8.59950066 0.03750000 201 205 216 19621.000000
6.44950008 8.59975052 0.03850000 202 204 216 19903.000000
6.44925022 8.59924984 0.03950000 202 204 216 21360.000000
6.44925022 8.59950066 0.04050000 202 204 216 20489.000000
6.44899988 8.59899998 0.04150000 202 204 216 19689.000000
6.44849968 8.59824944 0.04250000 210 210 220 18882.000000
6.44849968 8.59824944 0.04350000 210 210 220 16971.000000
6.44849968 8.59824944 0.04450000 210 210 220 12485.000000
6.44750023 8.59675026 0.04550000 210 210 220 6321.000000
6.44950008 8.59799957 -0.06700000 140 123 142 2328.000000
6.44974995 8.59824944 -0.06600000 140 123 142 2200.000000
6.45250034 8.60174942 -0.06500000 116 103 121 2032.000000
6.45100021 8.60000038 -0.06400000 116 103 121 1682.000000
6.46675014 8.62100029 -0.05825000 112 105 121 8175.000000
6.46650028 8.62075043 -0.05725000 112 105 121 13485.000000
6.46700001 8.62125015 -0.05600000 142 140 154 17171.000000
6.46624994 8.62050056 -0.05500000 142 140 154 18492.000000
6.46549988 8.61950016 -0.05400000 142 140 154 19000.000000
6.46475029 8.61824989 -0.05300000 142 140 154 19678.000000
6.46549988 8.61924934 -0.05225000 142 140 154 19960.000000
6.46525002 8.61899948 -0.05125000 174 176 191 20407.000000
6.46525002 8.61899948 -0.05025000 174 176 191 20632.000000
6.46475029 8.61824989 -0.04925000 174 176 191 21350.000000
6.46425009 8.61775017 -0.04800000 174 176 191 20946.000000
6.46500015 8.61874962 -0.04700000 188 191 206 19471.000000
6.46449995 8.61824989 -0.04600000 188 191 206 19200.000000
6.46350002 8.61674976 -0.04500000 188 191 206 19539.000000
6.46425009 8.61775017 -0.04400000 188 191 206 20789.000000
6.46425009 8.61775017 -0.04300000 188 191 206 20867.000000
6.46399975 8.61725044 -0.04200000 195 198 213 20257.000000
6.46399975 8.61725044 -0.04100000 195 198 213 20328.000000
6.46350002 8.61649990 -0.04000000 195 198 213 19892.000000
6.46250010 8.61549950 -0.03900000 195 198 213 20257.000000
6.46300030 8.61574936 -0.03800000 195 197 212 21189.000000
6.46224976 8.61524963 -0.03700000 195 197 212 21689.000000
6.46199989 8.61450005 -0.03600000 195 197 212 20871.000000
6.46199989 8.61450005 -0.03500000 195 197 212 20257.000000
6.46175003 8.61450005 -0.03400000 203 202 220 20185.000000
6.46175003 8.61425018 -0.03300000 203 202 220 20557.000000
6.46224976 8.61499977 -0.03200000 203 202 220 20110.000000
6.46175003 8.61450005 -0.03100000 203 202 220 19821.000000
6.46075010 8.61299992 -0.03000000 203 202 220 20039.000000
6.46274996 8.61549950 -0.02900000 208 203 223 19964.000000
6.46199989 8.61450005 -0.02800000 208 203 223 17896.000000
6.46049976 8.61250019 -0.02700000 208 203 223 13689.000000
6.46125031 8.61350060 -0.02600000 208 203 223 8532.000000
6.46125031 8.61375046 -0.02500000 208 203 223 5146.000000
6.46199989 8.61474991 -0.02400000 189 177 199 2807.000000
6.46024990 8.61224937 -0.02300000 189 177 199 1839.000000
6.45975018 8.61174965 -0.02200000 189 177 199 1439.000000
6.46075010 8.61299992 -0.02100000 189 177 199 1196.000000
6.46049976 8.61250019 -0.02000000 141 126 149 1132.000000
6.46125031 8.61375046 -0.01900000 141 126 149 1121.000000
6.46175003 8.61425018 -0.01800000 141 126 149 1032.000000
6.46125031 8.61375046 -0.01700000 141 126 149 1014.000000
6.45699978 8.60799980 -0.01600000 141 126 149 982.000000
6.46049976 8.61275005 -0.01500000 94 76 102 985.000000
6.46099997 8.61324978 -0.01400000 94 76 102 975.000000
6.45849991 8.61000061 -0.01300000 94 76 102 960.000000
6.46000004 8.61199951 -0.01200000 94 76 102 989.000000
6.46199989 8.61474991 -0.01100000 72 49 75 967.000000
6.46000004 8.61199951 -0.01000000 72 49 75 982.000000
6.45874977 8.61025047 -0.00900000 72 49 75 953.000000
6.46000004 8.61174965 -0.00800000 72 49 75 903.000000
6.45725012 8.60824966 -0.00700000 72 49 75 860.000000
6.45924997 8.61100006 -0.00600000 83 55 77 789.000000
6.45600033 8.60650063 -0.00500000 83 55 77 785.000000
6.45699978 8.60799980 -0.00400000 83 55 77 767.000000
6.46075010 8.61275005 -0.00300000 83 55 77 853.000000
6.45524979 8.60575008 -0.00200000 83 54 74 942.000000
6.45674992 8.60774994 -0.00100000 83 54 74 935.000000
6.45874977 8.61025047 0.00000000 83 54 74 932.000000
6.45275021 8.60225010 0.00075000 83 54 74 882.000000
6.45749998 8.60849953 0.00175000 78 53 72 907.000000
6.45499992 8.60550022 0.00275000 78 53 72 971.000000
6.45725012 8.60824966 0.00375000 78 53 72 1007.000000
6.45324993 8.60300064 0.00475000 78 53 72 1060.000000
6.45149994 8.60074997 0.00575000 78 53 72 1189.000000
6.45625019 8.60700035 0.00675000 78 60 76 1446.000000
6.45425034 8.60424995 0.00775000 78 60 76 1921.000000
6.45374966 8.60350037 0.00875000 78 60 76 2710.000000
6.45549965 8.60599995 0.00975000 78 60 76 4278.000000
6.45475006 8.60499954 0.01075000 105 92 109 6850.000000
6.45499992 8.60550022 0.01175000 105 92 109 10260.000000
6.45549965 8.60599995 0.01275000 105 92 109 14074.000000
6.45499992 8.60524940 0.01375000 105 92 109 17071.000000
6.45425034 8.60424995 0.01475000 105 92 109 18500.000000
6.45374966 8.60375023 0.01575000 156 150 164 18814.000000
6.45349979 8.60350037 0.01675000 156 150 164 18814.000000
6.45349979 8.60325050 0.01775000 156 150 164 19757.000000
6.45324993 8.60300064 0.01875000 156 150 164 20564.000000
6.45400000 8.60400009 0.01975000 156 150 164 20953.000000
6.45349979 8.60325050 0.02075000 197 195 209 21114.000000
6.45374966 8.60350037 0.02175000 197 195 209 21035.000000
6.45324993 8.60274982 0.02275000 197 195 209 20878.000000
6.45275021 8.60225010 0.02375000 197 195 209 19971.000000
6.45275021 8.60225010 0.02475000 209 211 224 19617.000000
6.45149994 8.60074997 0.02575000 209 211 224 19142.000000
6.45225000 8.60174942 0.02675000 209 211 224 19010.000000
6.45199966 8.60149956 0.02775000 209 211 224 19278.000000
6.45174980 8.60099983 0.02875000 209 211 224 19142.000000
6.45149994 8.60050011 0.02950000 210 214 226 19478.000000
6.45149994 8.60074997 0.03050000 210 214 226 19900.000000
6.45174980 8.60099983 0.03150000 210 214 226 20642.000000
6.45125008 8.60025024 0.03250000 210 214 226 20567.000000
6.45075035 8.59950066 0.03350000 201 205 216 20721.000000
6.45100021 8.60000038 0.03475000 201 205 216 20878.000000
6.45024967 8.59924984 0.03575000 201 205 216 19903.000000
6.45050001 8.59924984 0.03675000 201 205 216 19478.000000
6.44999981 8.59875011 0.03775000 202 204 216 19410.000000
6.44999981 8.59875011 0.03850000 202 204 216 20192.000000
6.44999981 8.59875011 0.03950000 202 204 216 20567.000000
6.44999981 8.59875011 0.04050000 202 204 216 19689.000000
6.44950008 8.59824944 0.04150000 202 204 216 19078.000000
6.44999981 8.59875011 0.04250000 210 210 220 18378.000000
6.44950008 8.59799957 0.04350000 210 210 220 14792.000000
6.44775009 8.59574986 0.04450000 210 210 220 8850.000000
6.45100021 8.59824944 -0.06600000 163 150 167 2182.000000
6.45174980 8.59924984 -0.06525000 134 125 142 2082.000000
6.45199966 8.59975052 -0.06425000 134 125 142 1835.000000
6.46675014 8.61924934 -0.05725000 112 105 121 10614.000000
6.46775007 8.62075043 -0.05625000 124 122 136 14900.000000
6.46624994 8.61849976 -0.05525000 124 122 136 17335.000000
6.46650028 8.61899948 -0.05425000 124 122 136 18067.000000
6.46624994 8.61874962 -0.05325000 124 122 136 18807.000000
6.46675014 8.61950016 -0.05225000 124 122 136 19064.000000
6.46650028 8.61899948 -0.05125000 162 161 175 19960.000000
6.46624994 8.61874962 -0.05025000 162 161 175 20407.000000
6.46574974 8.61800003 -0.04925000 162 161 175 20710.000000
6.46525002 8.61750031 -0.04825000 162 161 175 20557.000000
6.46549988 8.61775017 -0.04725000 188 187 203 19960.000000
6.46549988 8.61750031 -0.04625000 188 187 203 19610.000000
6.46475029 8.61674976 -0.04525000 188 187 203 19750.000000
6.46475029 8.61674976 -0.04425000 188 187 203 20789.000000
6.46500015 8.61700058 -0.04325000 188 187 203 20710.000000
6.46350002 8.61499977 -0.04225000 193 192 208 20182.000000
6.46374989 8.61549950 -0.04125000 193 192 208 19335.000000
6.46449995 8.61649990 -0.04025000 193 192 208 19067.000000
6.46325016 8.61474991 -0.03925000 193 192 208 19542.000000
6.46325016 8.61474991 -0.03825000 199 196 213 20635.000000
6.46274996 8.61425018 -0.03725000 199 196 213 21435.000000
6.46325016 8.61450005 -0.03625000 199 196 213 21271.000000
6.46224976 8.61324978 -0.03525000 199 196 213 19682.000000
6.46224976 8.61324978 -0.03425000 199 196 213 19821.000000
6.46224976 8.61324978 -0.03325000 203 195 216 19682.000000
6.46250010 8.61350060 -0.03225000 203 195 216 19471.000000
6.46224976 8.61324978 -0.03125000 203 195 216 19403.000000
6.46175003 8.61275005 -0.03025000 203 195 216 19135.000000
6.46274996 8.61400032 -0.02925000 186 172 195 18132.000000
6.46250010 8.61375046 -0.02825000 186 172 195 14785.000000
6.46250010 8.61375046 -0.02725000 186 172 195 9682.000000
6.46199989 8.61324978 -0.02625000 186 172 195 5667.000000
6.46250010 8.61375046 -0.02525000 186 172 195 3214.000000
6.46350002 8.61499977 -0.02425000 140 122 146 1967.000000
6.46300030 8.61450005 -0.02325000 140 122 146 1489.000000
6.46024990 8.61050034 -0.02225000 140 122 146 1207.000000
6.46199989 8.61299992 -0.02125000 140 122 146 1089.000000
6.45924997 8.60949993 -0.02025000 93 70 96 1064.000000
6.45874977 8.60849953 -0.01925000 93 70 96 1017.000000
6.46374989 8.61549950 -0.01825000 93 70 96 1039.000000
6.45775032 8.60750008 -0.01725000 93 70 96 1035.000000
6.45825005 8.60799980 -0.01625000 93 70 96 992.000000
6.45950031 8.60974979 -0.01525000 78 52 81 1057.000000
6.46125031 8.61199951 -0.01425000 78 52 81 1042.000000
6.45775032 8.60750008 -0.01325000 78 52 81 1000.000000
6.45650005 8.60575008 -0.01225000 78 52 81 928.000000
6.45699978 8.60650063 -0.01125000 88 58 84 903.000000
6.45674992 8.60599995 -0.01025000 88 58 84 928.000000
6.46125031 8.61199951 -0.00925000 88 58 84 917.000000
6.46075010 8.61149979 -0.00825000 88 58 84 867.000000
6.46399975 8.61574936 -0.00725000 88 58 84 867.000000
6.45900011 8.60900021 -0.00625000 85 50 70 828.000000
6.45674992 8.60599995 -0.00525000 85 50 70 814.000000
6.45524979 8.60400009 -0.00425000 85 50 70 817.000000
6.45549965 8.60424995 -0.00325000 85 50 70 932.000000
6.46075010 8.61124992 -0.00225000 83 49 65 989.000000
6.46099997 8.61174965 -0.00125000 83 49 65 967.000000
6.45775032 8.60725021 -0.00025000 83 49 65 907.000000
6.45650005 8.60550022 0.00050000 83 49 65 885.000000
6.45800018 8.60774994 0.00150000 83 49 65 935.000000
6.45499992 8.60375023 0.00250000 83 52 68 917.000000
6.45199966 8.59975052 0.00350000 83 52 68 950.000000
6.45699978 8.60624981 0.00450000 83 52 68 1000.000000
6.45475006 8.60325050 0.00550000 83 52 68 1021.000000
6.45650005 8.60575008 0.00650000 85 58 75 1185.000000
6.45825005 8.60799980 0.00750000 85 58 75 1382.000000
6.45625019 8.60524940 0.00850000 85 58 75 1774.000000
6.45674992 8.60599995 0.00950000 85 58 75 2550.000000
6.45499992 8.60375023 0.01050000 85 58 75 4078.000000
6.45625019 8.60524940 0.01150000 83 65 81 6803.000000
6.45625019 8.60550022 0.01250000 83 65 81 9982.000000
6.45574999 8.60474968 0.01350000 83 65 81 13757.000000
6.45499992 8.60375023 0.01450000 83 65 81 16760.000000
6.45549965 8.60449982 0.01550000 103 90 108 18317.000000
6.45400000 8.60249996 0.01650000 103 90 108 18689.000000
6.45400000 8.60225010 0.01750000 103 90 108 19900.000000
6.45475006 8.60350037 0.01850000 103 90 108 21035.000000
6.45374966 8.60174942 0.01950000 103 90 108 21114.000000
6.45450020 8.60325050 0.02050000 160 151 170 21114.000000
6.45400000 8.60225010 0.02150000 160 151 170 20717.000000
6.45374966 8.60225010 0.02250000 160 151 170 20489.000000
6.45374966 8.60200024 0.02350000 160 151 170 20042.000000
6.45324993 8.60124969 0.02450000 217 213 230 19757.000000
6.45300007 8.60099983 0.02550000 217 213 230 19278.000000
6.45275021 8.60074997 0.02650000 217 213 230 19550.000000
6.45275021 8.60050011 0.02750000 217 213 230 19478.000000
6.45149994 8.59924984 0.02850000 217 213 230 18814.000000
6.45250034 8.60025024 0.02950000 219 216 233 19342.000000
6.45199966 8.59975052 0.03050000 219 216 233 20192.000000
6.45275021 8.60050011 0.03150000 219 216 233 20264.000000
6.45174980 8.59924984 0.03250000 219 216 233 19903.000000
6.45149994 8.59899998 0.03350000 210 209 225 19971.000000
6.45100021 8.59849930 0.03450000 210 209 225 20264.000000
6.45100021 8.59824944 0.03550000 210 209 225 19689.000000
6.45100021 8.59849930 0.03650000 210 209 225 19828.000000
6.45125008 8.59875011 0.03750000 210 209 225 19617.000000
6.45125008 8.59875011 0.03850000 213 211 225 19828.000000
6.45149994 8.59899998 0.03950000 213 211 225 20117.000000
6.45075035 8.59799957 0.04050000 213 211 225 19482.000000
6.45050001 8.59774971 0.04150000 213 211 225 18503.000000
6.44999981 8.59700012 0.04250000 212 210 223 17510.000000
6.44999981 8.59700012 0.04350000 212 210 223 13932.000000
6.44999981 8.59724998 0.04450000 212 210 223 8028.000000
6.45125008 8.59700012 -0.06600000 163 150 167 2160.000000
6.45199966 8.59799957 -0.06500000 134 125 142 2157.000000
6.45349979 8.60000038 -0.06400000 134 125 142 1914.000000
6.46775007 8.61899948 -0.05700000 112 105 121 9200.000000
6.46775007 8.61924934 -0.05600000 124 122 136 13585.000000
6.46700001 8.61800003 -0.05500000 124 122 136 16507.000000
6.46700001 8.61800003 -0.05425000 124 122 136 18010.000000
6.46675014 8.61750031 -0.05325000 124 122 136 19132.000000
6.46749973 8.61874962 -0.05225000 124 122 136 19610.000000
6.46675014 8.61775017 -0.05125000 162 161 175 20328.000000
6.46624994 8.61700058 -0.05025000 162 161 175 20328.000000
6.46675014 8.61775017 -0.04900000 162 161 175 20328.000000
6.46700001 8.61824989 -0.04800000 162 161 175 20107.000000
6.46724987 8.61824989 -0.04700000 188 187 203 19960.000000
6.46624994 8.61700058 -0.04600000 188 187 203 19335.000000
6.46549988 8.61625004 -0.04500000 188 187 203 19400.000000
6.46624994 8.61700058 -0.04400000 188 187 203 20257.000000
6.46525002 8.61574936 -0.04300000 188 187 203 20257.000000
6.46525002 8.61549950 -0.04200000 193 192 208 19132.000000
6.46549988 8.61600018 -0.04100000 193 192 208 18682.000000
6.46425009 8.61450005 -0.04000000 193 192 208 18557.000000
6.46500015 8.61524963 -0.03900000 193 192 208 19542.000000
6.46449995 8.61474991 -0.03800000 199 196 213 21107.000000
6.46449995 8.61450005 -0.03700000 199 196 213 21946.000000
6.46425009 8.61425018 -0.03600000 199 196 213 20946.000000
6.46300030 8.61275005 -0.03500000 199 196 213 19542.000000
6.46350002 8.61350060 -0.03400000 203 195 216 19335.000000
6.46374989 8.61350060 -0.03300000 203 195 216 19200.000000
6.46374989 8.61375046 -0.03200000 203 195 216 19610.000000
6.46399975 8.61400032 -0.03100000 203 195 216 19750.000000
6.46374989 8.61375046 -0.03000000 203 195 216 18371.000000
6.46374989 8.61375046 -0.02900000 186 172 195 14399.000000
6.46399975 8.61400032 -0.02800000 186 172 195 9564.000000
6.46350002 8.61324978 -0.02700000 186 172 195 5425.000000
6.46374989 8.61375046 -0.02600000 186 172 195 2903.000000
6.46300030 8.61275005 -0.02500000 186 172 195 1896.000000
6.46150017 8.61050034 -0.02400000 140 122 146 1492.000000
6.46175003 8.61075020 -0.02300000 140 122 146 1214.000000
6.46350002 8.61324978 -0.02200000 140 122 146 1028.000000
6.46099997 8.61000061 -0.02100000 140 122 146 985.000000
6.46125031 8.61025047 -0.02000000 93 70 96 960.000000
6.46150017 8.61075020 -0.01900000 93 70 96 1010.000000
6.46099997 8.61000061 -0.01800000 93 70 96 971.000000
6.46075010 8.60974979 -0.01700000 93 70 96 1032.000000
6.46449995 8.61450005 -0.01600000 93 70 96 1042.000000
6.46175003 8.61075020 -0.01500000 78 52 81 1075.000000
6.46425009 8.61425018 -0.01400000 78 52 81 1000.000000
6.45950031 8.60799980 -0.01300000 78 52 81 896.000000
6.46274996 8.61224937 -0.01200000 78 52 81 850.000000
6.46075010 8.60949993 -0.01100000 88 58 84 882.000000
6.45924997 8.60774994 -0.01000000 88 58 84 903.000000
6.45924997 8.60750008 -0.00900000 88 58 84 853.000000
6.45825005 8.60624981 -0.00800000 88 58 84 825.000000
6.45775032 8.60575008 -0.00700000 88 58 84 846.000000
6.45499992 8.60200024 -0.00600000 85 50 70 860.000000
6.46250010 8.61199951 -0.00500000 85 50 70 853.000000
6.46099997 8.61000061 -0.00400000 85 50 70 953.000000
6.45775032 8.60575008 -0.00300000 85 50 70 1010.000000
6.45800018 8.60599995 -0.00200000 83 49 65 1035.000000
6.46075010 8.60974979 -0.00100000 83 49 65 982.000000
6.45749998 8.60524940 0.00000000 83 49 65 871.000000
6.45549965 8.60249996 0.00075000 83 49 65 882.000000
6.45725012 8.60499954 0.00175000 83 52 68 903.000000
6.45950031 8.60799980 0.00275000 83 52 68 899.000000
6.45499992 8.60225010 0.00375000 83 52 68 964.000000
6.45400000 8.60050011 0.00475000 83 52 68 996.000000
6.45849991 8.60650063 0.00575000 83 52 68 1050.000000
6.45775032 8.60550022 0.00675000 85 58 75 1121.000000
6.45275021 8.59899998 0.00775000 85 58 75 1200.000000
6.45650005 8.60400009 0.00875000 85 58 75 1478.000000
6.45674992 8.60449982 0.00975000 85 58 75 2010.000000
6.45650005 8.60400009 0.01075000 83 65 81 3189.000000
6.45674992 8.60424995 0.01175000 83 65 81 5046.000000
6.45725012 8.60474968 0.01275000 83 65 81 7678.000000
6.45625019 8.60350037 0.01375000 83 65 81 10996.000000
6.45600033 8.60325050 0.01475000 83 65 81 15071.000000
6.45600033 8.60350037 0.01575000 103 90 108 17957.000000
6.45574999 8.60300064 0.01675000 103 90 108 19546.000000
6.45499992 8.60200024 0.01775000 103 90 108 20875.000000
6.45524979 8.60249996 0.01875000 103 90 108 21275.000000
6.45475006 8.60174942 0.01975000 160 151 170 21525.000000
6.45475006 8.60174942 0.02075000 160 151 170 21035.000000
6.45450020 8.60149956 0.02175000 160 151 170 20717.000000
6.45475006 8.60174942 0.02275000 160 151 170 20564.000000
6.45425034 8.60099983 0.02375000 160 151 170 20717.000000
6.45374966 8.60025024 0.02475000 217 213 230 20264.000000
6.45425034 8.60099983 0.02575000 217 213 230 20414.000000
6.45324993 8.59975052 0.02675000 217 213 230 20642.000000
6.45349979 8.60000038 0.02775000 217 213 230 20339.000000
6.45349979 8.60000038 0.02850000 217 213 230 20721.000000
6.45324993 8.59975052 0.02950000 219 216 233 20721.000000
6.45250034 8.59875011 0.03050000 219 216 233 21035.000000
6.45300007 8.59950066 0.03175000 219 216 233 21117.000000
6.45275021 8.59924984 0.03275000 219 216 233 20642.000000
6.45275021 8.59899998 0.03375000 210 209 225 20878.000000
6.45199966 8.59799957 0.03475000 210 209 225 20264.000000
6.45250034 8.59875011 0.03575000 210 209 225 20117.000000
6.45275021 8.59899998 0.03650000 210 209 225 20642.000000
6.45300007 8.59924984 0.03750000 210 209 225 20192.000000
6.45199966 8.59799957 0.03850000 213 211 225 20339.000000
6.45225000 8.59824944 0.03950000 213 211 225 20489.000000
6.45199966 8.59774971 0.04050000 213 211 225 19689.000000
6.45125008 8.59724998 0.04150000 213 211 225 18692.000000
6.45100021 8.59675026 0.04250000 212 210 223 16514.000000
6.45075035 8.59625053 0.04350000 212 210 223 10739.000000
6.45024967 8.59549999 0.04450000 212 210 223 5450.000000
6.45225000 8.59650040 -0.06625000 163 150 167 2035.000000
6.45275021 8.59724998 -0.06525000 134 125 142 2196.000000
6.45324993 8.59799957 -0.06425000 134 125 142 1996.000000
6.45324993 8.59799957 -0.06325000 134 125 142 1532.000000
6.46775007 8.61725044 -0.05725000 112 105 121 6082.000000
6.46875000 8.61874962 -0.05625000 124 122 136 10410.000000
6.46850014 8.61849976 -0.05525000 124 122 136 14785.000000
6.46775007 8.61750031 -0.05425000 124 122 136 17500.000000
6.46775007 8.61750031 -0.05325000 124 122 136 18682.000000
6.46775007 8.61750031 -0.05225000 124 122 136 19539.000000
6.46724987 8.61700058 -0.05125000 162 161 175 20035.000000
6.46724987 8.61674976 -0.05025000 162 161 175 19892.000000
6.46775007 8.61725044 -0.04925000 162 161 175 19750.000000
6.46749973 8.61700058 -0.04825000 162 161 175 19539.000000
6.46675014 8.61600018 -0.04725000 188 187 203 19400.000000
6.46650028 8.61574936 -0.04625000 188 187 203 18871.000000
6.46624994 8.61549950 -0.04525000 188 187 203 18742.000000
6.46624994 8.61549950 -0.04425000 188 187 203 19000.000000
6.46624994 8.61524963 -0.04325000 188 187 203 19539.000000
6.46624994 8.61549950 -0.04225000 193 192 208 18871.000000
6.46650028 8.61574936 -0.04125000 193 192 208 18496.000000
6.46624994 8.61549950 -0.04025000 193 192 208 18310.000000
6.46500015 8.61375046 -0.03925000 193 192 208 19542.000000
6.46475029 8.61350060 -0.03825000 199 196 213 20789.000000
6.46500015 8.61375046 -0.03725000 199 196 213 21435.000000
6.46449995 8.61324978 -0.03625000 199 196 213 20407.000000
6.46425009 8.61275005 -0.03525000 199 196 213 20110.000000
6.46449995 8.61299992 -0.03425000 199 196 213 19610.000000
6.46475029 8.61324978 -0.03325000 203 195 216 19750.000000
6.46449995 8.61299992 -0.03225000 203 195 216 19682.000000
6.46475029 8.61350060 -0.03125000 203 195 216 18875.000000
6.46399975 8.61250019 -0.03025000 203 195 216 16314.000000
6.46500015 8.61375046 -0.02925000 186 172 195 11328.000000
6.46449995 8.61299992 -0.02825000 186 172 195 6800.000000
6.46399975 8.61250019 -0.02725000 186 172 195 3660.000000
6.46449995 8.61324978 -0.02625000 186 172 195 2114.000000
6.46500015 8.61375046 -0.02525000 186 172 195 1667.000000
6.46300030 8.61100006 -0.02425000 140 122 146 1410.000000
6.46274996 8.61100006 -0.02325000 140 122 146 1192.000000
6.46099997 8.60849953 -0.02225000 140 122 146 1025.000000
6.46000004 8.60725021 -0.02125000 140 122 146 971.000000
6.46150017 8.60900021 -0.02025000 93 70 96 950.000000
6.46175003 8.60925007 -0.01925000 93 70 96 957.000000
6.46300030 8.61100006 -0.01825000 93 70 96 907.000000
6.46500015 8.61375046 -0.01725000 93 70 96 939.000000
6.46500015 8.61400032 -0.01625000 93 70 96 967.000000
6.46300030 8.61100006 -0.01525000 78 52 81 967.000000
6.46099997 8.60849953 -0.01425000 78 52 81 942.000000
6.46075010 8.60824966 -0.01325000 78 52 81 846.000000
6.46075010 8.60824966 -0.01225000 78 52 81 842.000000
6.46274996 8.61075020 -0.01125000 88 58 84 839.000000
6.46000004 8.60725021 -0.01025000 88 58 84 864.000000
6.46000004 8.60700035 -0.00925000 88 58 84 835.000000
6.46525002 8.61400032 -0.00825000 88 58 84 814.000000
6.45600033 8.60174942 -0.00725000 88 58 84 810.000000
6.46075010 8.60824966 -0.00625000 85 50 70 857.000000
6.46049976 8.60774994 -0.00525000 85 50 70 889.000000
6.46000004 8.60725021 -0.00425000 85 50 70 996.000000
6.45775032 8.60424995 -0.00325000 85 50 70 1032.000000
6.46000004 8.60700035 -0.00225000 83 49 65 1025.000000
6.46374989 8.61224937 -0.00125000 83 49 65 971.000000
6.46024990 8.60750008 -0.00025000 83 49 65 889.000000
6.45725012 8.60350037 0.00050000 83 49 65 935.000000
6.45674992 8.60274982 0.00150000 83 49 65 878.000000
6.46300030 8.61124992 0.00250000 83 52 68 885.000000
6.45849991 8.60524940 0.00350000 83 52 68 903.000000
6.45874977 8.60524940 0.00450000 83 52 68 957.000000
6.45924997 8.60599995 0.00550000 83 52 68 1017.000000
6.45825005 8.60449982 0.00650000 85 58 75 1010.000000
6.45650005 8.60249996 0.00750000 85 58 75 1089.000000
6.45475006 8.60000038 0.00850000 85 58 75 1175.000000
6.45625019 8.60200024 0.00950000 85 58 75 1510.000000
6.45650005 8.60225010 0.01050000 85 58 75 2103.000000
6.45749998 8.60375023 0.01150000 83 65 81 2928.000000
6.45600033 8.60174942 0.01250000 83 65 81 4525.000000
6.45699978 8.60300064 0.01350000 83 65 81 6957.000000
6.45725012 8.60350037 0.01450000 83 65 81 10435.000000
6.45600033 8.60200024 0.01550000 103 90 108 14557.000000
6.45650005 8.60249996 0.01650000 103 90 108 17842.000000
6.45600033 8.60174942 0.01750000 103 90 108 19900.000000
6.45574999 8.60124969 0.01850000 103 90 108 20642.000000
6.45475006 8.60000038 0.01950000 103 90 108 20489.000000
6.45524979 8.60074997 0.02050000 160 151 170 19971.000000
6.45499992 8.60050011 0.02150000 160 151 170 20264.000000
6.45549965 8.60099983 0.02250000 160 151 170 20564.000000
6.45524979 8.60074997 0.02350000 160 151 170 21278.000000
6.45400000 8.59924984 0.02450000 217 213 230 20564.000000
6.45450020 8.59975052 0.02550000 217 213 230 20721.000000
6.45425034 8.59950066 0.02650000 217 213 230 20489.000000
6.45400000 8.59899998 0.02750000 217 213 230 20489.000000
6.45400000 8.59924984 0.02850000 217 213 230 21278.000000
6.45349979 8.59849930 0.02950000 219 216 233 20796.000000
6.45349979 8.59849930 0.03050000 219 216 233 20567.000000
6.45349979 8.59849930 0.03150000 219 216 233 20642.000000
6.45324993 8.59824944 0.03250000 219 216 233 21196.000000
6.45250034 8.59724998 0.03350000 210 209 225 20796.000000
6.45300007 8.59774971 0.03450000 210 209 225 19971.000000
6.45324993 8.59799957 0.03550000 210 209 225 20339.000000
6.45349979 8.59849930 0.03650000 210 209 225 20339.000000
6.45349979 8.59849930 0.03750000 210 209 225 20567.000000
6.45225000 8.59675026 0.03850000 213 211 225 20642.000000
6.45250034 8.59724998 0.03950000 213 211 225 20192.000000
6.45199966 8.59625053 0.04050000 213 211 225 19482.000000
6.45125008 8.59525013 0.04150000 213 211 225 18200.000000
6.45199966 8.59650040 0.04250000 212 210 223 15942.000000
6.45250034 8.59700012 0.04350000 212 210 223 10057.000000
6.45125008 8.59549999 0.04450000 212 210 223 4996.000000
6.45225000 8.59525013 -0.06500000 134 125 142 2085.000000
6.45425034 8.59774971 -0.06400000 134 125 142 1957.000000
6.45775032 8.60225010 -0.06300000 134 125 142 1582.000000
6.46875000 8.61700058 -0.05600000 124 122 136 9403.000000
6.46875000 8.61700058 -0.05500000 124 122 136 14174.000000
6.46899986 8.61725044 -0.05400000 124 122 136 17117.000000
6.46799994 8.61625004 -0.05300000 124 122 136 18432.000000
6.46899986 8.61725044 -0.05200000 124 122 136 18682.000000
6.46875000 8.61700058 -0.05100000 162 161 175 19539.000000
6.46875000 8.61700058 -0.05000000 162 161 175 20328.000000
6.46825027 8.61649990 -0.04900000 162 161 175 20107.000000
6.46799994 8.61625004 -0.04800000 162 161 175 19817.000000
6.46700001 8.61499977 -0.04700000 188 187 203 19750.000000
6.46700001 8.61474991 -0.04600000 188 187 203 18682.000000
6.46700001 8.61474991 -0.04500000 188 187 203 19000.000000
6.46724987 8.61499977 -0.04400000 188 187 203 18682.000000
6.46700001 8.61499977 -0.04300000 188 187 203 18189.000000
6.46650028 8.61425018 -0.04200000 193 192 208 18010.000000
6.46675014 8.61425018 -0.04100000 193 192 208 18010.000000
6.46600008 8.61350060 -0.04000000 193 192 208 18557.000000
6.46650028 8.61400032 -0.03900000 193 192 208 19200.000000
6.46600008 8.61324978 -0.03800000 199 196 213 19892.000000
6.46574974 8.61299992 -0.03700000 199 196 213 21028.000000
6.46650028 8.61400032 -0.03600000 199 196 213 21028.000000
6.46549988 8.61275005 -0.03500000 199 196 213 20710.000000
6.46600008 8.61350060 -0.03400000 203 195 216 19964.000000
6.46600008 8.61350060 -0.03300000 203 195 216 19682.000000
6.46600008 8.61350060 -0.03200000 203 195 216 18557.000000
6.46549988 8.61275005 -0.03100000 203 195 216 15028.000000
6.46549988 8.61275005 -0.03000000 203 195 216 10182.000000
6.46500015 8.61224937 -0.02900000 186 172 195 6189.000000
6.46449995 8.61149979 -0.02800000 186 172 195 3464.000000
6.46425009 8.61100006 -0.02700000 186 172 195 1982.000000
6.46300030 8.60925007 -0.02600000 186 172 195 1550.000000
6.46675014 8.61450005 -0.02500000 140 122 146 1346.000000
6.46374989 8.61025047 -0.02400000 140 122 146 1207.000000
6.46425009 8.61100006 -0.02300000 140 122 146 1089.000000
6.46250010 8.60874939 -0.02200000 140 122 146 1000.000000
6.46449995 8.61124992 -0.02100000 140 122 146 960.000000
6.46475029 8.61174965 -0.02000000 93 70 96 903.000000
6.46300030 8.60925007 -0.01900000 93 70 96 878.000000
6.46300030 8.60925007 -0.01800000 93 70 96 885.000000
6.46150017 8.60750008 -0.01700000 93 70 96 878.000000
6.46274996 8.60900021 -0.01600000 93 70 96 946.000000
6.46600008 8.61350060 -0.01500000 78 52 81 917.000000
6.46024990 8.60575008 -0.01400000 78 52 81 835.000000
6.45924997 8.60449982 -0.01300000 78 52 81 850.000000
6.45775032 8.60249996 -0.01200000 78 52 81 882.000000
6.46224976 8.60824966 -0.01100000 88 58 84 882.000000
6.46300030 8.60949993 -0.01000000 88 58 84 889.000000
6.45950031 8.60499954 -0.00900000 88 58 84 785.000000
6.45574999 8.59975052 -0.00800000 88 58 84 753.000000
6.46000004 8.60550022 -0.00700000 88 58 84 775.000000
6.46000004 8.60550022 -0.00600000 85 50 70 867.000000
6.46199989 8.60799980 -0.00500000 85 50 70 917.000000
6.45950031 8.60474968 -0.00400000 85 50 70 989.000000
6.46250010 8.60874939 -0.00300000 85 50 70 1003.000000
6.46325016 8.60974979 -0.00200000 83 49 65 992.000000
6.45924997 8.60449982 -0.00100000 83 49 65 967.000000
6.46049976 8.60599995 0.00000000 83 49 65 882.000000
6.45950031 8.60499954 0.00075000 83 49 65 907.000000
6.46125031 8.60725021 0.00175000 83 52 68 825.000000
6.46224976 8.60824966 0.00275000 83 52 68 842.000000
6.45924997 8.60449982 0.00375000 83 52 68 896.000000
6.45924997 8.60449982 0.00475000 83 52 68 921.000000
6.46224976 8.60824966 0.00575000 83 52 68 1000.000000
6.45699978 8.60149956 0.00675000 85 58 75 1035.000000
6.46250010 8.60874939 0.00775000 85 58 75 1082.000000
6.46049976 8.60599995 0.00875000 85 58 75 1150.000000
6.45924997 8.60449982 0.00975000 85 58 75 1300.000000
6.46175003 8.60750008 0.01075000 83 65 81 1575.000000
6.45749998 8.60200024 0.01175000 83 65 81 2082.000000
6.45825005 8.60300064 0.01275000 83 65 81 3007.000000
6.45749998 8.60225010 0.01375000 83 65 81 4925.000000
6.45725012 8.60174942 0.01475000 83 65 81 7596.000000
6.45674992 8.60124969 0.01575000 103 90 108 11332.000000
6.45674992 8.60124969 0.01675000 103 90 108 14950.000000
6.45699978 8.60149956 0.01775000 103 90 108 17903.000000
6.45699978 8.60124969 0.01875000 103 90 108 19275.000000
6.45650005 8.60099983 0.01975000 160 151 170 19407.000000
6.45549965 8.59950066 0.02075000 160 151 170 19278.000000
6.45574999 8.59950066 0.02175000 160 151 170 19971.000000
6.45650005 8.60074997 0.02275000 160 151 170 20875.000000
6.45549965 8.59950066 0.02375000 160 151 170 21357.000000
6.45574999 8.59975052 0.02475000 217 213 230 20796.000000
6.45549965 8.59950066 0.02575000 217 213 230 20564.000000
6.45400000 8.59749985 0.02675000 217 213 230 20117.000000
6.45475006 8.59849930 0.02775000 217 213 230 20796.000000
6.45499992 8.59875011 0.02875000 217 213 230 20953.000000
6.45475006 8.59849930 0.02975000 219 216 233 20642.000000
6.45425034 8.59774971 0.03075000 219 216 233 20878.000000
6.45450020 8.59824944 0.03175000 219 216 233 20642.000000
6.45450020 8.59824944 0.03275000 219 216 233 21196.000000
6.45374966 8.59700012 0.03375000 210 209 225 20192.000000
6.45374966 8.59700012 0.03475000 210 209 225 19478.000000
6.45400000 8.59724998 0.03575000 210 209 225 19410.000000
6.45349979 8.59675026 0.03650000 210 209 225 19760.000000
6.45349979 8.59700012 0.03750000 210 209 225 19971.000000
6.45349979 8.59675026 0.03850000 213 211 225 19621.000000
6.45324993 8.59650040 0.03950000 213 211 225 19621.000000
6.45250034 8.59549999 0.04050000 213 211 225 18817.000000
6.45324993 8.59650040 0.04175000 213 211 225 16917.000000
6.45250034 8.59525013 0.04275000 212 210 223 12571.000000
6.45250034 8.59525013 0.04375000 212 210 223 6964.000000
6.45275021 8.59399986 -0.06500000 134 125 142 2014.000000
6.45524979 8.59749985 -0.06400000 134 125 142 1985.000000
6.45600033 8.59824944 -0.06300000 134 125 142 1807.000000
6.45849991 8.60174942 -0.06200000 134 125 142 1496.000000
6.46850014 8.61524963 -0.05625000 124 122 136 6635.000000
6.46924973 8.61600018 -0.05525000 124 122 136 11307.000000
6.46950006 8.61625004 -0.05425000 124 122 136 15317.000000
6.46950006 8.61649990 -0.05325000 124 122 136 17225.000000
6.46950006 8.61625004 -0.05225000 124 122 136 17896.000000
6.46875000 8.61549950 -0.05125000 162 161 175 19267.000000
6.46924973 8.61625004 -0.05025000 162 161 175 19610.000000
6.47000027 8.61700058 -0.04925000 162 161 175 19892.000000
6.47000027 8.61725044 -0.04825000 162 161 175 20403.000000
6.46875000 8.61549950 -0.04725000 188 187 203 20257.000000
6.46850014 8.61499977 -0.04625000 188 187 203 19539.000000
6.46825027 8.61474991 -0.04525000 188 187 203 19400.000000
6.46825027 8.61474991 -0.04425000 188 187 203 18682.000000
6.46850014 8.61524963 -0.04325000 188 187 203 18010.000000
6.46724987 8.61324978 -0.04225000 193 192 208 18071.000000
6.46749973 8.61375046 -0.04125000 193 192 208 18682.000000
6.46650028 8.61250019 -0.04025000 193 192 208 18682.000000
6.46700001 8.61324978 -0.03925000 193 192 208 18939.000000
6.46650028 8.61250019 -0.03825000 199 196 213 19471.000000
6.46724987 8.61350060 -0.03725000 199 196 213 20110.000000
6.46650028 8.61224937 -0.03625000 199 196 213 20482.000000
6.46700001 8.61324978 -0.03525000 199 196 213 20482.000000
6.46650028 8.61250019 -0.03425000 199 196 213 19750.000000
6.46650028 8.61250019 -0.03325000 203 195 216 18371.000000
6.46624994 8.61199951 -0.03225000 203 195 216 15667.000000
6.46624994 8.61199951 -0.03125000 203 195 216 11035.000000
6.46624994 8.61224937 -0.03025000 203 195 216 6750.000000
6.46700001 8.61324978 -0.02925000 186 172 195 3932.000000
6.46675014 8.61275005 -0.02825000 186 172 195 2310.000000
6.46350002 8.60849953 -0.02725000 186 172 195 1621.000000
6.46749973 8.61375046 -0.02625000 186 172 195 1314.000000
6.46425009 8.60925007 -0.02525000 186 172 195 1235.000000
6.46425009 8.60949993 -0.02425000 140 122 146 1139.000000
6.46749973 8.61400032 -0.02325000 140 122 146 1007.000000
6.46224976 8.60675049 -0.02225000 140 122 146 921.000000
6.46325016 8.60824966 -0.02125000 140 122 146 950.000000
6.46075010 8.60474968 -0.02025000 93 70 96 903.000000
6.46099997 8.60499954 -0.01925000 93 70 96 825.000000
6.46099997 8.60524940 -0.01825000 93 70 96 867.000000
6.46399975 8.60925007 -0.01725000 93 70 96 939.000000
6.46175003 8.60599995 -0.01625000 93 70 96 967.000000
6.46300030 8.60799980 -0.01525000 78 52 81 907.000000
6.46250010 8.60725021 -0.01425000 78 52 81 878.000000
6.46399975 8.60925007 -0.01325000 78 52 81 892.000000
6.46024990 8.60424995 -0.01225000 78 52 81 907.000000
6.46224976 8.60675049 -0.01125000 88 58 84 892.000000
6.46075010 8.60474968 -0.01025000 88 58 84 850.000000
6.46350002 8.60849953 -0.00925000 88 58 84 828.000000
6.46449995 8.60974979 -0.00825000 88 58 84 750.000000
6.45924997 8.60274982 -0.00725000 88 58 84 760.000000
6.46399975 8.60900021 -0.00625000 85 50 70 817.000000
6.46125031 8.60550022 -0.00525000 85 50 70 896.000000
6.46274996 8.60750008 -0.00425000 85 50 70 1000.000000
6.46075010 8.60474968 -0.00325000 85 50 70 1010.000000
6.46350002 8.60849953 -0.00225000 83 49 65 1017.000000
6.46274996 8.60750008 -0.00125000 83 49 65 939.000000
6.45874977 8.60200024 -0.00025000 83 49 65 910.000000
6.46099997 8.60499954 0.00050000 83 49 65 942.000000
6.46125031 8.60550022 0.00150000 83 49 65 867.000000
6.45374966 8.59549999 0.00250000 83 52 68 860.000000
6.46600008 8.61174965 0.00350000 83 52 68 907.000000
6.46175003 8.60599995 0.00450000 83 52 68 925.000000
6.46049976 8.60424995 0.00550000 83 52 68 1007.000000
6.45874977 8.60200024 0.00650000 85 58 75 1096.000000
6.45874977 8.60200024 0.00750000 85 58 75 1132.000000
6.45950031 8.60300064 0.00850000 85 58 75 1110.000000
6.45849991 8.60174942 0.00950000 85 58 75 1142.000000
6.45574999 8.59824944 0.01050000 85 58 75 1285.000000
6.46024990 8.60424995 0.01150000 83 65 81 1492.000000
6.45749998 8.60050011 0.01250000 83 65 81 2017.000000
6.45849991 8.60174942 0.01350000 83 65 81 2985.000000
6.45650005 8.59899998 0.01450000 83 65 81 4707.000000
6.45775032 8.60050011 0.01550000 103 90 108 7442.000000
6.45800018 8.60124969 0.01650000 103 90 108 10842.000000
6.45775032 8.60074997 0.01750000 103 90 108 14671.000000
6.45800018 8.60099983 0.01850000 103 90 108 16814.000000
6.45725012 8.60000038 0.01950000 103 90 108 17617.000000
6.45775032 8.60074997 0.02050000 160 151 170 18075.000000
6.45650005 8.59924984 0.02150000 160 151 170 19342.000000
6.45600033 8.59849930 0.02250000 160 151 170 20414.000000
6.45625019 8.59875011 0.02350000 160 151 170 20717.000000
6.45574999 8.59824944 0.02450000 217 213 230 21528.000000
6.45625019 8.59849930 0.02550000 217 213 230 21035.000000
6.45549965 8.59799957 0.02650000 217 213 230 20642.000000
6.45650005 8.59899998 0.02750000 217 213 230 21357.000000
6.45574999 8.59799957 0.02850000 217 213 230 21278.000000
6.45549965 8.59799957 0.02950000 219 216 233 20796.000000
6.45549965 8.59774971 0.03050000 219 216 233 20721.000000
6.45524979 8.59749985 0.03150000 219 216 233 21196.000000
6.45600033 8.59849930 0.03250000 219 216 233 21278.000000
6.45499992 8.59700012 0.03350000 210 209 225 20489.000000
6.45499992 8.59700012 0.03450000 210 209 225 19617.000000
6.45499992 8.59700012 0.03550000 210 209 225 19410.000000
6.45475006 8.59675026 0.03650000 210 209 225 19903.000000
6.45499992 8.59724998 0.03750000 210 209 225 19757.000000
6.45425034 8.59625053 0.03850000 213 211 225 19760.000000
6.45499992 8.59700012 0.03950000 213 211 225 19075.000000
6.45374966 8.59549999 0.04050000 213 211 225 18442.000000
6.45400000 8.59600067 0.04150000 213 211 225 15896.000000
6.45450020 8.59650040 0.04250000 212 210 223 10596.000000
6.45324993 8.59474945 0.04350000 212 210 223 5475.000000
6.45400000 8.59424973 -0.06400000 150 144 158 2042.000000
6.45374966 8.59375000 -0.06300000 150 144 158 2046.000000
6.45800018 8.59950066 -0.06200000 150 144 158 1753.000000
6.47099972 8.61674976 -0.05525000 117 115 129 9307.000000
6.47099972 8.61674976 -0.05425000 117 115 129 13785.000000
6.47049999 8.61600018 -0.05300000 117 115 129 16703.000000
6.47000027 8.61549950 -0.05200000 117 115 129 18250.000000
6.46950006 8.61474991 -0.05100000 152 150 164 19400.000000
6.47049999 8.61600018 -0.05000000 152 150 164 20407.000000
6.47000027 8.61549950 -0.04900000 152 150 164 20182.000000
6.47000027 8.61549950 -0.04800000 152 150 164 20785.000000
6.46974993 8.61499977 -0.04700000 182 180 194 20867.000000
6.46924973 8.61425018 -0.04600000 182 180 194 19817.000000
6.46974993 8.61524963 -0.04500000 182 180 194 19335.000000
6.46899986 8.61400032 -0.04400000 182 180 194 18310.000000
6.46775007 8.61250019 -0.04300000 182 180 194 18875.000000
6.46875000 8.61375046 -0.04200000 184 180 197 19400.000000
6.46875000 8.61350060 -0.04100000 184 180 197 18939.000000
6.46850014 8.61350060 -0.04000000 184 180 197 18742.000000
6.46875000 8.61375046 -0.03900000 184 180 197 19200.000000
6.46875000 8.61375046 -0.03800000 190 181 200 19471.000000
6.46749973 8.61199951 -0.03700000 190 181 200 19471.000000
6.46775007 8.61224937 -0.03600000 190 181 200 20035.000000
6.46724987 8.61174965 -0.03500000 190 181 200 20035.000000
6.46775007 8.61250019 -0.03400000 175 161 184 17896.000000
6.46775007 8.61224937 -0.03300000 175 161 184 14399.000000
6.46749973 8.61224937 -0.03200000 175 161 184 9839.000000
6.46624994 8.61025047 -0.03100000 175 161 184 5914.000000
6.46850014 8.61324978 -0.03000000 175 161 184 3332.000000
6.46650028 8.61075020 -0.02900000 135 115 140 2103.000000
6.46749973 8.61199951 -0.02800000 135 115 140 1521.000000
6.46749973 8.61199951 -0.02700000 135 115 140 1221.000000
6.46525002 8.60900021 -0.02600000 135 115 140 1135.000000
6.46899986 8.61400032 -0.02500000 94 69 98 1092.000000
6.46574974 8.60974979 -0.02400000 94 69 98 1010.000000
6.46899986 8.61400032 -0.02300000 94 69 98 967.000000
6.46224976 8.60499954 -0.02200000 94 69 98 942.000000
6.46199989 8.60474968 -0.02100000 94 69 98 885.000000
6.46425009 8.60774994 -0.02000000 78 49 79 910.000000
6.46350002 8.60675049 -0.01900000 78 49 79 853.000000
6.46325016 8.60624981 -0.01800000 78 49 79 907.000000
6.46350002 8.60675049 -0.01700000 78 49 79 971.000000
6.46500015 8.60874939 -0.01600000 78 49 79 935.000000
6.46624994 8.61050034 -0.01500000 83 50 81 885.000000
6.46199989 8.60499954 -0.01400000 83 50 81 871.000000
6.46525002 8.60900021 -0.01300000 83 50 81 917.000000
6.46175003 8.60449982 -0.01200000 83 50 81 885.000000
6.46399975 8.60750008 -0.01100000 94 55 82 882.000000
6.46049976 8.60274982 -0.01000000 94 55 82 825.000000
6.46399975 8.60750008 -0.00900000 94 55 82 807.000000
6.46199989 8.60474968 -0.00800000 94 55 82 778.000000
6.46374989 8.60700035 -0.00700000 94 55 82 785.000000
6.46449995 8.60799980 -0.00600000 87 46 64 885.000000
6.46099997 8.60325050 -0.00500000 87 46 64 899.000000
6.46399975 8.60750008 -0.00400000 87 46 64 975.000000
6.45924997 8.60124969 -0.00300000 87 46 64 989.000000
6.45874977 8.60050011 -0.00200000 85 43 57 946.000000
6.46125031 8.60375023 -0.00100000 85 43 57 939.000000
6.46150017 8.60424995 0.00000000 85 43 57 878.000000
6.45924997 8.60099983 0.00075000 85 43 57 842.000000
6.46425009 8.60774994 0.00175000 85 47 62 810.000000
6.46274996 8.60550022 0.00275000 85 47 62 850.000000
6.45825005 8.59975052 0.00375000 85 47 62 860.000000
6.46150017 8.60400009 0.00475000 85 47 62 903.000000
6.46125031 8.60375023 0.00575000 85 47 62 985.000000
6.45975018 8.60174942 0.00675000 86 53 70 1035.000000
6.46024990 8.60249996 0.00775000 86 53 70 1082.000000
6.45849991 8.60000038 0.00875000 86 53 70 1110.000000
6.45900011 8.60050011 0.00975000 86 53 70 1042.000000
6.46150017 8.60424995 0.01075000 81 54 73 1132.000000
6.45600033 8.59675026 0.01175000 81 54 73 1346.000000
6.46024990 8.60249996 0.01275000 81 54 73 1614.000000
6.45699978 8.59799957 0.01375000 81 54 73 2167.000000
6.45749998 8.59875011 0.01475000 81 54 73 3132.000000
6.45900011 8.60050011 0.01575000 81 59 80 4903.000000
6.45900011 8.60050011 0.01675000 81 59 80 8050.000000
6.45950031 8.60149956 0.01775000 81 59 80 11332.000000
6.45900011 8.60074997 0.01875000 81 59 80 15071.000000
6.45900011 8.60074997 0.01975000 117 102 125 16814.000000
6.45699978 8.59824944 0.02075000 117 102 125 18317.000000
6.45725012 8.59849930 0.02175000 117 102 125 19689.000000
6.45775032 8.59899998 0.02275000 117 102 125 20489.000000
6.45749998 8.59875011 0.02375000 117 102 125 21114.000000
6.45725012 8.59849930 0.02475000 169 157 181 20796.000000
6.45725012 8.59824944 0.02575000 169 157 181 20642.000000
6.45674992 8.59774971 0.02675000 169 157 181 20414.000000
6.45625019 8.59700012 0.02775000 169 157 181 20414.000000
6.45650005 8.59749985 0.02875000 206 198 221 20796.000000
6.45625019 8.59700012 0.02975000 206 198 221 20264.000000
6.45650005 8.59749985 0.03075000 206 198 221 20642.000000
6.45650005 8.59749985 0.03175000 206 198 221 21610.000000
6.45625019 8.59700012 0.03275000 206 198 221 21528.000000
6.45600033 8.59675026 0.03375000 213 208 228 20878.000000
6.45600033 8.59675026 0.03475000 213 208 228 20339.000000
6.45600033 8.59675026 0.03550000 213 208 228 20339.000000
6.45650005 8.59724998 0.03650000 213 208 228 20339.000000
6.45625019 8.59700012 0.03750000 213 208 228 19617.000000
6.45475006 8.59499931 0.03850000 219 215 230 18882.000000
6.45499992 8.59549999 0.03950000 219 215 230 18567.000000
6.45524979 8.59574986 0.04075000 219 215 230 17182.000000
6.45450020 8.59474945 0.04175000 219 215 230 12746.000000
6.45400000 8.59399986 0.04275000 205 199 213 7239.000000
6.45475006 8.59350014 -0.06400000 150 144 158 2067.000000
6.45524979 8.59424973 -0.06300000 150 144 158 2089.000000
6.45775032 8.59749985 -0.06200000 150 144 158 1910.000000
6.45975018 8.60000038 -0.06100000 150 144 158 1564.000000
6.47175026 8.61625004 -0.05525000 117 115 129 6578.000000
6.47200012 8.61649990 -0.05425000 117 115 129 11121.000000
6.47200012 8.61625004 -0.05325000 117 115 129 15146.000000
6.47149992 8.61600018 -0.05225000 117 115 129 17721.000000
6.47074986 8.61450005 -0.05125000 152 150 164 19067.000000
6.47049999 8.61425018 -0.05025000 152 150 164 19610.000000
6.47049999 8.61425018 -0.04925000 152 150 164 19678.000000
6.47025013 8.61425018 -0.04825000 152 150 164 20107.000000
6.47074986 8.61474991 -0.04725000 182 180 194 19610.000000
6.47049999 8.61450005 -0.04625000 182 180 194 18871.000000
6.46974993 8.61350060 -0.04525000 182 180 194 18871.000000
6.46950006 8.61299992 -0.04425000 182 180 194 18621.000000
6.46924973 8.61275005 -0.04325000 182 180 194 19132.000000
6.46899986 8.61224937 -0.04225000 184 180 197 19132.000000
6.46924973 8.61275005 -0.04125000 184 180 197 19132.000000
6.46974993 8.61350060 -0.04025000 184 180 197 19400.000000
6.46950006 8.61324978 -0.03925000 184 180 197 19471.000000
6.46899986 8.61250019 -0.03825000 190 181 200 19682.000000
6.46825027 8.61124992 -0.03725000 190 181 200 19471.000000
6.46799994 8.61124992 -0.03625000 190 181 200 19135.000000
6.46950006 8.61324978 -0.03525000 190 181 200 18682.000000
6.47000027 8.61375046 -0.03425000 190 181 200 16553.000000
6.46950006 8.61324978 -0.03325000 175 161 184 11353.000000
6.46850014 8.61174965 -0.03225000 175 161 184 6800.000000
6.46825027 8.61149979 -0.03125000 175 161 184 3807.000000
6.46749973 8.61050034 -0.03025000 175 161 184 2157.000000
