//X Y Z R G B Intensity
-2.73220015 -2.28119993 0.35350001 85 81 104 2071.000000
-2.74029994 -2.28800011 0.35560000 85 81 104 2046.000000
-2.73020005 -2.27959991 0.35530001 85 81 104 2046.000000
-2.73059988 -2.27990007 0.35630000 87 82 105 1989.000000
-2.73420000 -2.28290009 0.35780001 87 82 105 2035.000000
-2.73640013 -2.28469992 0.35910001 87 82 105 1950.000000
-2.73740005 -2.28559995 0.36019999 86 81 104 1989.000000
-2.73250008 -2.28150010 0.36059999 86 81 104 1846.000000
-2.73409986 -2.28279996 0.36179999 86 81 104 1917.000000
-2.73589993 -2.28430009 0.36300001 86 81 104 1917.000000
-2.73210001 -2.28110003 0.36359999 86 81 104 1903.000000
-2.72729993 -2.27719998 0.36390001 86 81 104 1957.000000
-2.72799993 -2.27780008 0.36500001 85 80 103 1975.000000
-2.73430014 -2.28299999 0.36690000 85 80 103 1885.000000
-2.73000002 -2.27939987 0.36730000 85 80 103 1939.000000
-2.72810006 -2.27780008 0.36800000 83 78 101 1950.000000
-2.73119998 -2.28040004 0.36950001 83 78 101 1914.000000
-2.72919989 -2.27880001 0.37020001 83 78 101 1971.000000
-2.73150015 -2.28069997 0.37149999 84 79 102 1921.000000
-2.73239994 -2.28139997 0.37270001 84 79 102 2078.000000
-2.73009992 -2.27950001 0.37329999 85 80 103 2046.000000
-2.73370004 -2.28250003 0.37480000 86 81 104 2117.000000
-2.72839999 -2.27810001 0.37509999 86 81 104 2228.000000
-2.72950006 -2.27900004 0.37630001 87 82 105 2260.000000
-2.73259997 -2.28160000 0.37770000 87 82 105 2289.000000
-2.72679996 -2.27670002 0.37790000 87 82 105 2521.000000
-2.72939992 -2.27889991 0.37930000 87 83 108 2839.000000
-2.72930002 -2.27889991 0.38029999 75 76 106 3771.000000
-2.72790003 -2.27760005 0.38110000 75 76 106 6892.000000
-2.73009992 -2.27950001 0.38240001 81 85 114 12900.000000
-2.72979999 -2.27920008 0.38339999 94 98 125 23428.000000
-2.73049998 -2.27990007 0.38450000 94 98 125 34939.000000
-2.72919989 -2.27880001 0.38530001 123 128 150 43664.000000
-2.72919989 -2.27869987 0.38630000 174 179 198 49982.000000
-2.72900009 -2.27859998 0.38730001 174 179 198 50347.000000
-2.72909999 -2.27859998 0.38830000 222 228 242 50307.000000
-2.72810006 -2.27780008 0.38920000 242 249 255 50369.000000
-2.72760010 -2.27740002 0.39010000 242 249 255 50536.000000
-2.72770000 -2.27749991 0.39109999 238 245 251 50535.000000
-2.72810006 -2.27780008 0.39219999 242 247 250 50491.000000
-2.72670007 -2.27659988 0.39300001 242 247 250 50412.000000
-2.72620010 -2.27620006 0.39390001 243 248 251 50412.000000
-2.72630000 -2.27629995 0.39489999 242 247 250 50274.000000
-2.72670007 -2.27670002 0.39600000 242 247 250 50371.000000
-2.72600007 -2.27609992 0.39690000 242 247 250 50475.000000
-2.72600007 -2.27609992 0.39789999 244 249 253 50495.000000
-2.72589993 -2.27600002 0.39890000 244 249 253 50332.000000
-2.72480011 -2.27509999 0.39969999 247 252 255 50394.000000
-2.72510004 -2.27530003 0.40079999 245 250 255 50583.000000
-2.72550011 -2.27570009 0.40189999 245 250 255 50604.000000
-2.72530007 -2.27550006 0.40279999 241 246 250 50741.000000
-2.72589993 -2.27600002 0.40390000 242 247 250 50602.000000
-2.72580004 -2.27589989 0.40490001 242 247 250 50473.000000
-2.72440004 -2.27469993 0.40570000 244 250 250 50295.000000
-2.72429991 -2.27469993 0.40669999 244 248 251 50219.000000
-2.72460008 -2.27489996 0.40779999 244 248 251 50144.000000
-2.72539997 -2.27559996 0.40889999 243 247 250 44810.000000
-2.72930002 -2.27880001 0.41049999 247 250 255 36035.000000
-2.74289989 -2.29020000 0.41350001 245 248 253 22646.000000
-2.77189994 -2.31299996 0.31529999 109 106 113 15396.000000
-2.75670004 -2.30040002 0.31450000 109 106 113 25124.000000
-2.74979997 -2.29460001 0.31479999 149 148 154 37778.000000
-2.74600005 -2.29139996 0.31529999 149 148 154 46885.000000
-2.74499989 -2.29069996 0.31619999 200 201 206 50011.000000
-2.74569988 -2.29119992 0.31729999 233 238 242 50151.000000
-2.74539995 -2.29099989 0.31830001 233 238 242 50170.000000
-2.74489999 -2.29060006 0.31920001 242 249 255 50080.000000
-2.74390006 -2.28970003 0.32010001 239 246 252 50100.000000
-2.74370003 -2.28950000 0.32110000 239 246 252 50406.000000
-2.74399996 -2.28979993 0.32220000 239 248 255 50345.000000
-2.74390006 -2.28970003 0.32319999 237 246 255 50345.000000
-2.74370003 -2.28959990 0.32409999 237 246 255 50210.000000
-2.74340010 -2.28929996 0.32510000 237 246 255 50119.000000
-2.74370003 -2.28950000 0.32609999 237 246 255 49157.000000
-2.74309993 -2.28909993 0.32710001 237 246 255 45389.000000
-2.74270010 -2.28870010 0.32800001 238 246 255 39089.000000
-2.74309993 -2.28909993 0.32910001 233 241 252 30892.000000
-2.74200010 -2.28810000 0.33000001 233 241 252 22132.000000
-2.74189997 -2.28800011 0.33100000 203 209 221 14039.000000
-2.74099994 -2.28730011 0.33190000 162 168 182 6639.000000
-2.74000001 -2.28640008 0.33280000 162 168 182 3514.000000
-2.73860002 -2.28530002 0.33360001 117 120 139 2625.000000
-2.74049997 -2.28690004 0.33480000 95 96 117 2450.000000
-2.74239993 -2.28850007 0.33610001 95 96 117 2350.000000
-2.74270010 -2.28870010 0.33710000 84 85 106 2217.000000
-2.74169993 -2.28780007 0.33800000 89 90 111 2146.000000
-2.74029994 -2.28670001 0.33880001 89 90 111 2146.000000
-2.74079990 -2.28710008 0.33989999 88 89 110 2178.000000
-2.73689985 -2.28390002 0.34040001 83 84 105 2132.000000
-2.73810005 -2.28489995 0.34160000 83 84 105 2064.000000
-2.74399996 -2.28979993 0.34330001 85 83 105 2017.000000
-2.73790002 -2.28469992 0.34360000 85 83 105 2114.000000
-2.74060011 -2.28699994 0.34490001 85 83 105 2021.000000
-2.74020004 -2.28660011 0.34590000 84 82 104 2032.000000
-2.73850012 -2.28520012 0.34670001 84 82 104 2114.000000
-2.73930001 -2.28590012 0.34779999 84 82 104 2128.000000
-2.73810005 -2.28489995 0.34860000 85 81 104 1992.000000
-2.73070002 -2.27869987 0.34869999 85 81 104 1932.000000
-2.73830009 -2.28509998 0.35069999 85 81 104 1957.000000
-2.73769999 -2.28450012 0.35159999 85 81 104 1992.000000
-2.73850012 -2.28520012 0.35270000 85 81 104 2121.000000
-2.73900008 -2.28559995 0.35380000 85 81 104 2064.000000
-2.74280000 -2.28880000 0.35530001 86 81 104 1946.000000
-2.73640013 -2.28340006 0.35550001 86 81 104 2050.000000
-2.73699999 -2.28399992 0.35659999 86 81 104 2089.000000
-2.73539996 -2.28259993 0.35740000 87 82 105 2010.000000
-2.73830009 -2.28509998 0.35870001 87 82 105 1957.000000
-2.73799992 -2.28480005 0.35969999 87 82 105 1925.000000
-2.73790002 -2.28469992 0.36070001 87 82 105 1932.000000
-2.74250007 -2.28850007 0.36230001 86 81 104 1864.000000
-2.73889995 -2.28550005 0.36289999 86 81 104 1971.000000
-2.73679996 -2.28380013 0.36359999 86 81 104 1992.000000
-2.73490000 -2.28220010 0.36430001 85 80 103 2067.000000
-2.73699999 -2.28390002 0.36559999 85 80 103 1867.000000
-2.72909999 -2.27729988 0.36559999 85 80 103 1817.000000
-2.73720002 -2.28410006 0.36770001 85 80 103 1975.000000
-2.73269987 -2.28040004 0.36809999 85 80 103 2035.000000
-2.73970008 -2.28620005 0.37000000 84 79 102 1996.000000
-2.73280001 -2.28049994 0.37009999 85 80 103 1839.000000
-2.72909999 -2.27729988 0.37059999 85 80 103 1925.000000
-2.72720003 -2.27579999 0.37130001 86 81 104 2000.000000
-2.72959995 -2.27780008 0.37270001 87 82 105 2139.000000
-2.73210001 -2.27990007 0.37400001 87 82 105 2117.000000
-2.73220015 -2.27990007 0.37500000 88 83 106 2185.000000
-2.73370004 -2.28119993 0.37619999 88 83 106 2275.000000
-2.72860003 -2.27690005 0.37650001 88 83 106 2328.000000
-2.72580004 -2.27460003 0.37720001 88 83 106 2464.000000
-2.73090005 -2.27880001 0.37889999 87 83 108 2425.000000
-2.72659993 -2.27530003 0.37930000 87 83 108 2653.000000
-2.73169994 -2.27950001 0.38100001 78 78 106 3225.000000
-2.72919989 -2.27740002 0.38170001 91 92 120 5360.000000
-2.73119998 -2.27909994 0.38290000 91 92 120 10371.000000
-2.72799993 -2.27649999 0.38350001 93 95 120 18267.000000
-2.73029995 -2.27839994 0.38479999 92 94 119 29142.000000
-2.72979999 -2.27799988 0.38580000 92 94 119 39760.000000
-2.72939992 -2.27760005 0.38670000 126 128 151 47514.000000
-2.72919989 -2.27740002 0.38769999 189 192 211 50068.000000
-2.72939992 -2.27760005 0.38870001 189 192 211 50157.000000
-2.72799993 -2.27640009 0.38949999 232 235 252 50234.000000
-2.72900009 -2.27719998 0.39070001 241 244 255 50450.000000
-2.72830009 -2.27670002 0.39160001 241 244 255 50310.000000
-2.72740006 -2.27600002 0.39250001 245 249 255 50494.000000
-2.72760010 -2.27609992 0.39350000 246 250 255 50411.000000
-2.72790003 -2.27640009 0.39460000 246 250 255 50369.000000
-2.72819996 -2.27659988 0.39559999 244 249 253 50450.000000
-2.72799993 -2.27640009 0.39660001 240 245 248 50578.000000
-2.72740006 -2.27589989 0.39750001 240 245 248 50624.000000
-2.72729993 -2.27579999 0.39850000 241 246 249 50558.000000
-2.72690010 -2.27550006 0.39950001 246 251 254 50453.000000
-2.72609997 -2.27489996 0.40030000 246 251 254 50517.000000
-2.72650003 -2.27519989 0.40140000 246 252 252 50495.000000
-2.72600007 -2.27480006 0.40230000 244 250 250 50517.000000
-2.72560000 -2.27449989 0.40329999 244 250 250 50475.000000
-2.72600007 -2.27480006 0.40430000 242 248 248 50495.000000
-2.72539997 -2.27430010 0.40529999 244 250 250 50414.000000
-2.72550011 -2.27440000 0.40630001 244 250 250 50180.000000
-2.72560000 -2.27440000 0.40730000 241 245 248 50003.000000
-2.72609997 -2.27489996 0.40840000 242 246 249 43703.000000
-2.73110008 -2.27900004 0.41010001 249 253 255 32182.000000
-2.74569988 -2.29119992 0.41339999 249 253 255 20725.000000
-2.77670002 -2.31579995 0.31619999 104 102 107 14660.000000
-2.75959992 -2.30150008 0.31529999 109 106 113 23242.000000
-2.75110006 -2.29449987 0.31540000 149 148 154 34396.000000
-2.74779987 -2.29169989 0.31600001 200 201 206 43867.000000
-2.74670005 -2.29080009 0.31690001 200 201 206 50060.000000
-2.74580002 -2.28999996 0.31779999 233 238 242 50189.000000
-2.74580002 -2.28999996 0.31880000 242 249 255 50189.000000
-2.74480009 -2.28920007 0.31970000 242 249 255 50209.000000
-2.74419999 -2.28870010 0.32060000 239 246 252 50248.000000
-2.74519992 -2.28950000 0.32170001 239 248 255 50285.000000
-2.74390006 -2.28850007 0.32260001 239 248 255 50193.000000
-2.74480009 -2.28920007 0.32370001 237 246 255 50117.000000
-2.74419999 -2.28870010 0.32470000 237 246 255 50100.000000
-2.74329996 -2.28800011 0.32560000 237 246 255 48228.000000
-2.74399996 -2.28859997 0.32659999 237 246 255 41025.000000
-2.74399996 -2.28859997 0.32760000 238 246 255 33757.000000
-2.74329996 -2.28800011 0.32859999 238 246 255 24928.000000
-2.74239993 -2.28719997 0.32949999 233 241 252 16096.000000
-2.74099994 -2.28600001 0.33030000 203 209 221 8700.000000
-2.74230003 -2.28710008 0.33149999 203 209 221 4242.000000
-2.74130011 -2.28629994 0.33230001 162 168 182 2978.000000
-2.74539995 -2.28970003 0.33390000 117 120 139 2510.000000
-2.74180007 -2.28670001 0.33440000 117 120 139 2417.000000
-2.74219990 -2.28710008 0.33550000 95 96 117 2325.000000
-2.73670006 -2.28250003 0.33579999 84 85 106 2135.000000
-2.73979998 -2.28500009 0.33719999 84 85 106 2203.000000
-2.73720002 -2.28290009 0.33790001 89 90 111 2167.000000
-2.73959994 -2.28489995 0.33919999 88 89 110 2139.000000
-2.73609996 -2.28189993 0.33980000 88 89 110 2010.000000
-2.74000001 -2.28520012 0.34130001 83 84 105 1907.000000
-2.74329996 -2.28789997 0.34270000 85 83 105 1996.000000
-2.73629999 -2.28209996 0.34279999 85 83 105 2060.000000
-2.73619986 -2.28200006 0.34380001 85 83 105 2075.000000
-2.74049997 -2.28559995 0.34540001 84 82 104 2171.000000
-2.73729992 -2.28290009 0.34599999 84 82 104 2057.000000
-2.73720002 -2.28290009 0.34700000 84 82 104 2067.000000
-2.74390006 -2.28839993 0.34880000 85 81 104 2017.000000
-2.73780012 -2.28340006 0.34900001 85 81 104 1960.000000
-2.73909998 -2.28439999 0.35020000 85 81 104 1989.000000
-2.73699999 -2.28270006 0.35089999 85 81 104 1960.000000
-2.73959994 -2.28489995 0.35229999 85 81 104 2046.000000
-2.73250008 -2.27889991 0.35240000 85 81 104 2185.000000
-2.73729992 -2.28299999 0.35400000 86 81 104 2114.000000
-2.73769999 -2.28329992 0.35510001 86 81 104 1957.000000
-2.73909998 -2.28450012 0.35630000 86 81 104 2021.000000
-2.74440002 -2.28889990 0.35789999 87 82 105 2010.000000
-2.73720002 -2.28279996 0.35800001 87 82 105 2007.000000
-2.73860002 -2.28399992 0.35920000 87 82 105 1982.000000
-2.73670006 -2.28240013 0.36000001 87 82 105 1935.000000
-2.73699999 -2.28270006 0.36100000 87 82 105 1917.000000
-2.73670006 -2.28240013 0.36199999 86 81 104 2017.000000
-2.74009991 -2.28530002 0.36340001 86 81 104 1921.000000
-2.73029995 -2.27710009 0.36309999 86 81 104 2007.000000
-2.73440003 -2.28049994 0.36469999 85 80 103 1846.000000
-2.73469996 -2.28080010 0.36579999 85 80 103 1910.000000
-2.73309994 -2.27939987 0.36660001 85 80 103 1953.000000
-2.73519993 -2.28119993 0.36780000 85 80 103 2000.000000
-2.73570013 -2.28160000 0.36890000 84 79 102 2017.000000
-2.73090005 -2.27760005 0.36930001 84 79 102 1882.000000
-2.73360014 -2.27990007 0.37059999 85 80 103 1953.000000
-2.73490000 -2.28099990 0.37180001 86 81 104 1935.000000
-2.73350000 -2.27979994 0.37259999 86 81 104 1935.000000
-2.72889996 -2.27600002 0.37300000 87 82 105 2014.000000
-2.73259997 -2.27900004 0.37450001 88 83 106 2160.000000
-2.73409986 -2.28020000 0.37570000 88 83 106 2225.000000
-2.72480011 -2.27250004 0.37549999 88 83 106 2185.000000
-2.73230004 -2.27880001 0.37750000 88 83 106 2317.000000
-2.73300004 -2.27929997 0.37860000 88 83 106 2414.000000
-2.73199987 -2.27850008 0.37950000 87 83 108 2367.000000
-2.72830009 -2.27539992 0.38000000 78 78 106 2503.000000
-2.73169994 -2.27830005 0.38139999 78 78 106 2860.000000
-2.73259997 -2.27909994 0.38260001 91 92 120 4371.000000
-2.73119998 -2.27780008 0.38339999 93 95 120 8367.000000
-2.73049998 -2.27729988 0.38429999 93 95 120 15175.000000
-2.73110008 -2.27780008 0.38540000 92 94 119 26028.000000
-2.73059988 -2.27740002 0.38630000 126 128 151 35857.000000
-2.73020005 -2.27699995 0.38730001 126 128 151 43982.000000
-2.73000002 -2.27690005 0.38820001 189 192 211 50068.000000
-2.72939992 -2.27629995 0.38920000 232 235 252 50158.000000
-2.72909999 -2.27609992 0.39010000 232 235 252 50290.000000
-2.72959995 -2.27649999 0.39120001 241 244 255 50328.000000
-2.72880006 -2.27589989 0.39210001 245 249 255 50472.000000
-2.72889996 -2.27589989 0.39309999 245 249 255 50535.000000
-2.72849989 -2.27559996 0.39410001 246 250 255 50472.000000
-2.72869992 -2.27579999 0.39510000 244 249 253 50369.000000
-2.72799993 -2.27519989 0.39600000 244 249 253 50411.000000
-2.72830009 -2.27550006 0.39710000 240 245 248 50645.000000
-2.72880006 -2.27579999 0.39809999 241 246 249 50690.000000
-2.72799993 -2.27519989 0.39899999 241 246 249 50646.000000
-2.72799993 -2.27519989 0.40000001 246 251 254 50738.000000
-2.72749996 -2.27469993 0.40090001 246 252 252 50625.000000
-2.72639990 -2.27379990 0.40180001 246 252 252 50434.000000
-2.72709990 -2.27440000 0.40290001 244 250 250 50474.000000
-2.72670007 -2.27410007 0.40390000 242 248 248 50516.000000
-2.72670007 -2.27410007 0.40490001 242 248 248 50453.000000
-2.72630000 -2.27370000 0.40580001 244 250 250 50413.000000
-2.72609997 -2.27360010 0.40680000 241 245 248 50144.000000
-2.72749996 -2.27469993 0.40799999 241 245 248 42939.000000
-2.73230004 -2.27869987 0.40970001 242 246 249 31607.000000
-2.74699998 -2.29099989 0.41290000 249 253 255 18817.000000
-2.77979994 -2.31699991 0.31700000 104 102 107 13889.000000
-2.76289988 -2.30290008 0.31610000 123 122 127 22657.000000
-2.75370002 -2.29519987 0.31610000 123 122 127 35050.000000
-2.74880004 -2.29119992 0.31650001 168 169 174 44171.000000
-2.74760008 -2.29020000 0.31740001 216 219 224 50077.000000
-2.74670005 -2.28940010 0.31830001 216 219 224 50170.000000
-2.74550009 -2.28839993 0.31920001 240 245 251 50118.000000
-2.74639988 -2.28920007 0.32030001 240 247 255 50152.000000
-2.74519992 -2.28819990 0.32110000 240 247 255 50100.000000
-2.74559999 -2.28850007 0.32220000 241 250 255 50117.000000
-2.74460006 -2.28769994 0.32310000 240 248 255 50048.000000
-2.74449992 -2.28760004 0.32409999 240 248 255 48407.000000
-2.74429989 -2.28740001 0.32510000 242 250 255 42582.000000
-2.74519992 -2.28819990 0.32620001 240 248 255 35485.000000
-2.74559999 -2.28850007 0.32720000 240 248 255 28532.000000
-2.74530005 -2.28830004 0.32820001 228 236 249 19439.000000
-2.74440002 -2.28749990 0.32910001 201 208 224 11417.000000
-2.74359989 -2.28679991 0.33000001 201 208 224 5582.000000
-2.74519992 -2.28819990 0.33120000 156 162 178 3357.000000
-2.74569988 -2.28859997 0.33230001 112 115 132 2707.000000
-2.74189997 -2.28539991 0.33280000 112 115 132 2475.000000
-2.73920012 -2.28320003 0.33350000 95 96 116 2314.000000
-2.74130011 -2.28500009 0.33480000 85 86 107 2271.000000
-2.74029994 -2.28410006 0.33570001 85 86 107 2239.000000
-2.73810005 -2.28230000 0.33640000 84 85 106 2125.000000
-2.73920012 -2.28320003 0.33750001 86 87 108 2175.000000
-2.74429989 -2.28749990 0.33919999 86 87 108 2110.000000
-2.74329996 -2.28660011 0.34009999 80 81 102 2117.000000
-2.74149990 -2.28509998 0.34079999 76 77 98 1989.000000
-2.73979998 -2.28369999 0.34160000 76 77 98 2014.000000
-2.73880005 -2.28290009 0.34250000 82 80 102 2114.000000
-2.73900008 -2.28299999 0.34360000 85 83 105 2196.000000
-2.74270010 -2.28609991 0.34500000 85 83 105 2078.000000
-2.73979998 -2.28360009 0.34570000 83 81 103 2221.000000
-2.73559999 -2.28020000 0.34610000 83 81 103 2200.000000
-2.73830009 -2.28240013 0.34750000 83 81 103 2075.000000
-2.73850012 -2.28259993 0.34850001 84 80 103 1950.000000
-2.74149990 -2.28509998 0.34990001 84 80 103 1932.000000
-2.74340010 -2.28670001 0.35120001 84 80 103 1953.000000
-2.74419999 -2.28730011 0.35229999 84 80 103 2017.000000
-2.74020004 -2.28399992 0.35280001 84 80 103 2071.000000
-2.73950005 -2.28349996 0.35370001 84 80 103 2189.000000
-2.73780012 -2.28200006 0.35450000 85 80 103 1925.000000
-2.73570013 -2.28029990 0.35519999 85 80 103 2017.000000
-2.73740005 -2.28169990 0.35640001 85 80 103 1975.000000
-2.73780012 -2.28200006 0.35749999 88 83 106 2057.000000
-2.73679996 -2.28119993 0.35839999 88 83 106 2125.000000
-2.73889995 -2.28290009 0.35969999 88 83 106 2039.000000
-2.73679996 -2.28119993 0.36039999 87 82 105 1975.000000
-2.73979998 -2.28369999 0.36179999 86 81 104 1964.000000
-2.74340010 -2.28660011 0.36330000 86 81 104 1985.000000
-2.73329997 -2.27819991 0.36289999 86 81 104 1928.000000
-2.73659992 -2.28099990 0.36440000 85 80 103 1835.000000
-2.73500013 -2.27970004 0.36520001 85 80 103 1778.000000
-2.73199987 -2.27710009 0.36579999 84 79 102 1864.000000
-2.73629999 -2.28080010 0.36739999 84 79 102 2000.000000
-2.73580003 -2.28029990 0.36829999 84 79 102 2067.000000
-2.73189998 -2.27710009 0.36880001 85 80 103 1957.000000
-2.73650002 -2.28099990 0.37040001 86 81 104 1967.000000
-2.73220015 -2.27729988 0.37079999 86 81 104 1932.000000
-2.73549986 -2.28009987 0.37230000 86 81 104 1935.000000
-2.73300004 -2.27799988 0.37300000 87 82 105 1964.000000
-2.73500013 -2.27970004 0.37419999 87 82 105 2067.000000
-2.72930002 -2.27489996 0.37450001 88 83 106 2050.000000
-2.73379993 -2.27869987 0.37610000 88 83 106 2042.000000
-2.73519993 -2.27990007 0.37729999 88 83 106 2167.000000
-2.73269987 -2.27769995 0.37790000 88 83 106 2292.000000
-2.73409986 -2.27889991 0.37909999 87 83 108 2292.000000
-2.72919989 -2.27489996 0.37950000 87 83 108 2428.000000
-2.73500013 -2.27959991 0.38130000 85 85 111 2528.000000
-2.73099995 -2.27629995 0.38170001 85 87 112 2592.000000
-2.73059988 -2.27600002 0.38270000 85 87 112 3425.000000
-2.72900009 -2.27469993 0.38350001 85 87 112 6175.000000
-2.73199987 -2.27710009 0.38490000 86 88 113 11721.000000
-2.73099995 -2.27640009 0.38580000 86 88 113 19975.000000
-2.73150015 -2.27670002 0.38679999 100 102 127 30496.000000
-2.73150015 -2.27670002 0.38780001 138 140 163 40796.000000
-2.73049998 -2.27589989 0.38870001 138 140 163 49596.000000
-2.73110008 -2.27640009 0.38980001 191 193 216 50192.000000
-2.73000002 -2.27550006 0.39070001 232 235 254 50513.000000
-2.73079991 -2.27620006 0.39179999 232 235 254 50448.000000
-2.72950006 -2.27509999 0.39260000 239 242 255 50349.000000
-2.73009992 -2.27559996 0.39370000 245 249 255 50470.000000
-2.73009992 -2.27559996 0.39469999 245 249 255 50512.000000
-2.72889996 -2.27460003 0.39550000 245 249 255 50431.000000
-2.72919989 -2.27480006 0.39660001 240 245 249 50430.000000
-2.72909999 -2.27480006 0.39760000 240 245 249 50535.000000
-2.72909999 -2.27480006 0.39860001 239 245 245 50808.000000
-2.72950006 -2.27509999 0.39969999 244 250 248 50689.000000
-2.72849989 -2.27430010 0.40050000 244 250 248 50809.000000
-2.72909999 -2.27469993 0.40160000 247 253 249 50831.000000
-2.72880006 -2.27449989 0.40259999 245 251 247 50737.000000
-2.72770000 -2.27360010 0.40340000 245 251 247 50516.000000
-2.72770000 -2.27360010 0.40439999 243 249 247 50625.000000
-2.72790003 -2.27370000 0.40540001 244 250 250 50431.000000
-2.72799993 -2.27379990 0.40650001 244 250 250 50196.000000
-2.72900009 -2.27469993 0.40759999 240 244 247 43217.000000
-2.73549986 -2.28009987 0.40959999 241 245 248 32389.000000
-2.74950004 -2.29180002 0.41270000 244 248 251 19985.000000
-2.78369999 -2.31900001 0.31790000 112 110 113 13760.000000
-2.76530004 -2.30360007 0.31680000 112 110 113 21478.000000
-2.75530005 -2.29530001 0.31670001 143 142 147 31939.000000
-2.75020003 -2.29110003 0.31709999 143 142 147 43685.000000
-2.74790001 -2.28909993 0.31790000 186 189 194 49903.000000
-2.74740005 -2.28870010 0.31880000 221 226 232 50226.000000
-2.74670005 -2.28819990 0.31970000 221 226 232 50208.000000
-2.74730015 -2.28859997 0.32080001 237 241 250 50062.000000
-2.74690008 -2.28830004 0.32179999 239 246 255 49528.000000
-2.74659991 -2.28810000 0.32280001 239 246 255 50045.000000
-2.74530005 -2.28699994 0.32359999 237 243 255 46060.000000
-2.74639988 -2.28789997 0.32480001 237 243 255 37867.000000
-2.74620008 -2.28769994 0.32570001 237 243 255 31428.000000
-2.74609995 -2.28760004 0.32670000 222 228 244 22932.000000
-2.74530005 -2.28699994 0.32760000 187 192 211 14285.000000
-2.74580002 -2.28740001 0.32870001 187 192 211 7196.000000
-2.74480009 -2.28660011 0.32960001 148 153 172 3903.000000
-2.74169993 -2.28399992 0.33019999 114 116 137 2921.000000
-2.74569988 -2.28730011 0.33170000 114 116 137 2528.000000
-2.74860001 -2.28970003 0.33309999 88 90 111 2367.000000
-2.74180007 -2.28410006 0.33329999 89 90 111 2203.000000
-2.74959993 -2.29049993 0.33520001 89 90 111 2107.000000
-2.74740005 -2.28880000 0.33600000 84 85 106 2067.000000
-2.74239993 -2.28460002 0.33640000 83 84 105 2089.000000
-2.74580002 -2.28740001 0.33780000 83 84 105 2035.000000
-2.74449992 -2.28629994 0.33860001 81 82 103 2128.000000
-2.74679995 -2.28819990 0.33989999 77 75 97 2142.000000
-2.74259996 -2.28469992 0.34040001 77 75 97 2146.000000
-2.74210000 -2.28430009 0.34140000 79 77 99 2007.000000
-2.73950005 -2.28220010 0.34200001 83 81 103 2075.000000
-2.74580002 -2.28740001 0.34380001 83 81 103 2117.000000
-2.73720002 -2.28020000 0.34380001 81 79 101 2067.000000
-2.73780012 -2.28080010 0.34490001 84 80 103 2167.000000
-2.74020004 -2.28270006 0.34619999 84 80 103 2171.000000
-2.74070001 -2.28320003 0.34720001 84 80 103 2096.000000
-2.74130011 -2.28369999 0.34830001 85 80 103 1975.000000
-2.74060011 -2.28310013 0.34920001 85 80 103 1917.000000
-2.74029994 -2.28279996 0.35020000 85 80 103 1842.000000
-2.73810005 -2.28099990 0.35089999 85 80 103 1992.000000
-2.73880005 -2.28150010 0.35200000 85 80 103 2057.000000
-2.74070001 -2.28310013 0.35330001 85 80 103 2153.000000
-2.73689985 -2.27999997 0.35380000 85 80 103 2017.000000
-2.73740005 -2.28040004 0.35490000 85 80 103 2050.000000
-2.74099994 -2.28340006 0.35630000 85 80 103 1939.000000
-2.73959994 -2.28220010 0.35720000 88 83 106 2050.000000
-2.73970008 -2.28230000 0.35820001 88 83 106 2050.000000
-2.74040008 -2.28290009 0.35929999 88 83 106 2039.000000
-2.74110007 -2.28349996 0.36039999 87 82 105 2071.000000
-2.73740005 -2.28040004 0.36090001 87 82 105 2000.000000
-2.74070001 -2.28310013 0.36230001 86 81 104 1957.000000
-2.74189997 -2.28410006 0.36350000 86 81 104 1921.000000
-2.73889995 -2.28160000 0.36410001 86 81 104 1799.000000
-2.73819995 -2.28110003 0.36500001 85 80 103 1842.000000
-2.74300003 -2.28509998 0.36669999 84 79 102 1846.000000
-2.74169993 -2.28399992 0.36750001 84 79 102 1964.000000
-2.73339987 -2.27710009 0.36739999 84 79 102 1978.000000
-2.73479986 -2.27819991 0.36860001 85 80 103 2028.000000
-2.73360014 -2.27719998 0.36950001 85 80 103 1996.000000
-2.73720002 -2.28020000 0.37090001 85 80 103 1985.000000
-2.73559999 -2.27889991 0.37169999 85 80 103 1967.000000
-2.73320007 -2.27690005 0.37239999 85 80 103 1939.000000
-2.73729992 -2.28040004 0.37400001 85 80 103 1853.000000
-2.73839998 -2.28119993 0.37509999 85 80 103 2082.000000
-2.73370004 -2.27729988 0.37549999 85 80 103 2053.000000
-2.73549986 -2.27880001 0.37680000 86 81 104 2182.000000
-2.72909999 -2.27349997 0.37689999 86 81 104 2257.000000
-2.73679996 -2.27990007 0.37889999 86 81 104 2296.000000
-2.73449993 -2.27799988 0.37959999 86 82 105 2357.000000
-2.72970009 -2.27399993 0.38000000 87 85 109 2271.000000
-2.72779989 -2.27239990 0.38069999 87 85 109 2339.000000
-2.72839999 -2.27290010 0.38180000 78 78 102 2396.000000
-2.73169994 -2.27570009 0.38330001 81 81 107 3053.000000
-2.73090005 -2.27500010 0.38420001 81 81 107 5021.000000
-2.73370004 -2.27729988 0.38560000 90 90 116 9535.000000
-2.73269987 -2.27649999 0.38640001 89 89 117 16785.000000
-2.73250008 -2.27629995 0.38740000 89 89 117 27221.000000
-2.73199987 -2.27589989 0.38830000 98 98 126 37035.000000
-2.73070002 -2.27480006 0.38920000 141 141 169 45607.000000
-2.73049998 -2.27460003 0.39010000 141 141 169 50252.000000
-2.73000002 -2.27419996 0.39109999 192 192 218 50410.000000
-2.73079991 -2.27489996 0.39219999 225 227 250 50449.000000
-2.73020005 -2.27440000 0.39309999 225 227 250 50513.000000
-2.72989988 -2.27410007 0.39410001 237 240 255 50451.000000
-2.73049998 -2.27460003 0.39520001 244 248 255 50577.000000
-2.73000002 -2.27419996 0.39610001 244 248 255 50471.000000
-2.73040009 -2.27460003 0.39719999 241 246 252 50347.000000
-2.72919989 -2.27349997 0.39800000 239 245 245 50536.000000
-2.73020005 -2.27430010 0.39910001 239 245 245 50512.000000
-2.72970009 -2.27399993 0.40009999 243 249 245 50556.000000
-2.72810006 -2.27270007 0.40090001 244 254 245 50626.000000
-2.72939992 -2.27370000 0.40200001 244 254 245 50784.000000
-2.72839999 -2.27279997 0.40290001 242 252 243 50625.000000
-2.72830009 -2.27279997 0.40390000 243 249 247 50432.000000
-2.72790003 -2.27250004 0.40490001 243 249 247 50453.000000
-2.72860003 -2.27309990 0.40599999 246 251 254 49821.000000
-2.73040009 -2.27460003 0.40730000 243 247 250 40392.000000
-2.73920012 -2.28189993 0.40959999 239 243 246 30060.000000
-2.75360012 -2.29390001 0.41270000 239 243 246 18564.000000
-2.78769994 -2.32100010 0.31880000 110 108 109 12617.000000
-2.76959991 -2.30590010 0.31770000 129 129 131 18139.000000
-2.75659990 -2.29509997 0.31729999 129 129 131 29278.000000
-2.75189996 -2.29119992 0.31770000 186 189 194 40375.000000
-2.74870014 -2.28850007 0.31840000 186 189 194 48535.000000
-2.74720001 -2.28719997 0.31920001 221 226 232 50246.000000
-2.74749994 -2.28749990 0.32020000 237 241 250 50098.000000
-2.74779987 -2.28769994 0.32130000 237 241 250 48928.000000
-2.74659991 -2.28670001 0.32220000 239 246 255 46392.000000
-2.74690008 -2.28699994 0.32319999 237 243 255 40871.000000
-2.74629998 -2.28649998 0.32409999 237 243 255 33296.000000
-2.74679995 -2.28690004 0.32519999 237 243 255 24814.000000
-2.74629998 -2.28649998 0.32620001 222 228 244 17792.000000
-2.74659991 -2.28679991 0.32720000 222 228 244 9767.000000
-2.74620008 -2.28640008 0.32820001 187 192 211 4610.000000
-2.74390006 -2.28450012 0.32890001 148 153 172 2967.000000
-2.74589992 -2.28620005 0.33010000 148 153 172 2503.000000
-2.74410009 -2.28469992 0.33090001 114 116 137 2317.000000
-2.74309993 -2.28390002 0.33180001 88 90 111 2228.000000
-2.74600005 -2.28620005 0.33320001 88 90 111 2200.000000
-2.74800014 -2.28789997 0.33440000 89 90 111 2139.000000
-2.74169993 -2.28270006 0.33469999 84 85 106 2039.000000
-2.74169993 -2.28270006 0.33570001 84 85 106 2100.000000
-2.74340010 -2.28410006 0.33690000 83 84 105 2114.000000
-2.74609995 -2.28640008 0.33820000 81 82 103 2028.000000
-2.74259996 -2.28340006 0.33880001 81 82 103 2032.000000
-2.73939991 -2.28080010 0.33939999 77 75 97 2100.000000
-2.74200010 -2.28290009 0.34079999 79 77 99 2089.000000
-2.74210000 -2.28299999 0.34180000 79 77 99 2178.000000
-2.74130011 -2.28240013 0.34270000 83 81 103 2121.000000
-2.74110007 -2.28220010 0.34369999 81 79 101 2064.000000
-2.73970008 -2.28099990 0.34450001 81 79 101 2132.000000
-2.74230003 -2.28320003 0.34580001 84 80 103 2114.000000
-2.74440002 -2.28489995 0.34709999 84 80 103 2053.000000
-2.74029994 -2.28150010 0.34760001 84 80 103 2089.000000
-2.74329996 -2.28399992 0.34900001 85 80 103 2103.000000
-2.73810005 -2.27970004 0.34930000 85 80 103 2042.000000
-2.73760009 -2.27920008 0.35030001 85 80 103 1985.000000
-2.74300003 -2.28380013 0.35200000 85 80 103 1946.000000
-2.73790002 -2.27950001 0.35229999 85 80 103 2003.000000
-2.73900008 -2.28040004 0.35350001 85 80 103 2050.000000
-2.74499989 -2.28539991 0.35519999 85 80 103 1960.000000
-2.74349999 -2.28419995 0.35609999 85 80 103 2071.000000
-2.73399997 -2.27629995 0.35580000 85 80 103 2178.000000
-2.74040008 -2.28160000 0.35769999 88 83 106 2050.000000
-2.73860002 -2.28009987 0.35839999 88 83 106 2017.000000
-2.73959994 -2.28090000 0.35960001 88 83 106 2075.000000
-2.74090004 -2.28200006 0.36080000 87 82 105 2000.000000
-2.73880005 -2.28020000 0.36149999 86 81 104 2000.000000
-2.74099994 -2.28209996 0.36280000 86 81 104 2046.000000
-2.73629999 -2.27819991 0.36320001 86 81 104 1985.000000
-2.73900008 -2.28040004 0.36449999 85 80 103 1785.000000
-2.74020004 -2.28139997 0.36570001 85 80 103 1857.000000
-2.73939991 -2.28069997 0.36660001 84 79 102 2007.000000
-2.73869991 -2.28009987 0.36750001 84 79 102 2007.000000
-2.73259997 -2.27509999 0.36770001 84 79 102 2014.000000
-2.73839998 -2.27990007 0.36950001 85 80 103 1992.000000
-2.74429989 -2.28480005 0.37130001 85 80 103 1953.000000
-2.74040008 -2.28160000 0.37180001 85 80 103 1900.000000
-2.73409986 -2.27629995 0.37189999 85 80 103 1914.000000
-2.73659992 -2.27839994 0.37329999 85 80 103 1821.000000
-2.73339987 -2.27579999 0.37390000 85 80 103 1839.000000
-2.73740005 -2.27909994 0.37540001 85 80 103 2000.000000
-2.73399997 -2.27620006 0.37590000 86 81 104 2110.000000
-2.73500013 -2.27699995 0.37709999 86 81 104 2125.000000
-2.73950005 -2.28090000 0.37869999 86 81 104 2228.000000
-2.73549986 -2.27749991 0.37920001 86 82 105 2267.000000
-2.73659992 -2.27839994 0.38029999 86 82 105 2296.000000
-2.73239994 -2.27489996 0.38080001 87 85 109 2171.000000
-2.73099995 -2.27379990 0.38159999 78 78 102 2239.000000
-2.73129988 -2.27399993 0.38260001 78 78 102 2378.000000
-2.73530006 -2.27729988 0.38420001 81 81 107 2767.000000
-2.73259997 -2.27509999 0.38479999 90 90 116 3828.000000
-2.73189998 -2.27449989 0.38569999 90 90 116 7307.000000
-2.73090005 -2.27370000 0.38659999 89 89 117 12871.000000
-2.73280001 -2.27530003 0.38789999 98 98 126 22139.000000
-2.73250008 -2.27500010 0.38880000 98 98 126 34567.000000
-2.73239994 -2.27489996 0.38980001 141 141 169 44764.000000
-2.73210001 -2.27469993 0.39080000 192 192 218 50193.000000
-2.73199987 -2.27460003 0.39179999 192 192 218 50327.000000
-2.73129988 -2.27399993 0.39269999 225 227 250 50388.000000
-2.73090005 -2.27360010 0.39359999 237 240 255 50471.000000
-2.73009992 -2.27300000 0.39449999 237 240 255 50494.000000
-2.73150015 -2.27410007 0.39570001 244 248 255 50327.000000
-2.73119998 -2.27390003 0.39669999 241 246 252 50449.000000
-2.73059988 -2.27340007 0.39760000 241 246 252 50556.000000
-2.73049998 -2.27329993 0.39860001 239 245 245 50513.000000
-2.72939992 -2.27239990 0.39940000 243 249 245 50647.000000
-2.72959995 -2.27259994 0.40050000 243 249 245 50669.000000
-2.72970009 -2.27259994 0.40149999 244 254 245 50738.000000
-2.72860003 -2.27169991 0.40230000 242 252 243 50496.000000
-2.72959995 -2.27259994 0.40349999 242 252 243 50410.000000
-2.72959995 -2.27250004 0.40450001 243 249 247 50330.000000
-2.72970009 -2.27270007 0.40549999 246 251 254 50158.000000
-2.73290014 -2.27530003 0.40700001 246 251 254 42864.000000
-2.73959994 -2.28090000 0.40900001 243 247 250 30582.000000
-2.75720000 -2.29559994 0.41270000 238 242 243 18235.000000
-2.77189994 -2.30649996 0.31850001 129 129 131 16417.000000
-2.75889993 -2.29570007 0.31799999 129 129 131 25289.000000
-2.75320005 -2.29099989 0.31830001 162 163 167 37653.000000
-2.74979997 -2.28819990 0.31900001 201 204 209 44342.000000
-2.74880004 -2.28730011 0.31979999 201 204 209 48732.000000
-2.74880004 -2.28730011 0.32080001 229 233 242 47789.000000
-2.74830008 -2.28690004 0.32179999 233 240 250 42835.000000
-2.74860001 -2.28719997 0.32280001 233 240 250 36514.000000
-2.74740005 -2.28609991 0.32370001 230 236 250 29278.000000
-2.74720001 -2.28600001 0.32470000 223 229 245 20642.000000
-2.74629998 -2.28520012 0.32560000 223 229 245 12560.000000
-2.74569988 -2.28480005 0.32650000 195 200 219 6296.000000
-2.74839997 -2.28690004 0.32789999 143 148 168 3446.000000
-2.74620008 -2.28520012 0.32859999 143 148 168 2678.000000
-2.74650002 -2.28539991 0.32969999 104 106 129 2339.000000
-2.74510002 -2.28419995 0.33050001 90 92 115 2210.000000
-2.74810004 -2.28670001 0.33190000 90 92 115 2232.000000
-2.74480009 -2.28399992 0.33250001 89 91 114 2242.000000
-2.74870014 -2.28719997 0.33390000 87 88 109 2182.000000
-2.74340010 -2.28279996 0.33430001 87 88 109 2114.000000
-2.74550009 -2.28460002 0.33559999 84 85 106 2178.000000
-2.74889994 -2.28740001 0.33700001 82 83 104 2032.000000
-2.74679995 -2.28559995 0.33780000 82 83 104 1978.000000
-2.74250007 -2.28209996 0.33820000 80 81 102 2039.000000
-2.74270010 -2.28220010 0.33930001 81 79 101 1925.000000
-2.74379992 -2.28320003 0.34040001 81 79 101 2021.000000
-2.74790001 -2.28649998 0.34189999 88 86 108 2182.000000
-2.74519992 -2.28430009 0.34259999 88 86 108 2110.000000
-2.74480009 -2.28399992 0.34360000 88 86 108 2153.000000
-2.74060011 -2.28049994 0.34400001 77 75 97 2007.000000
-2.74510002 -2.28430009 0.34560001 84 80 103 2010.000000
-2.74399996 -2.28329992 0.34650001 84 80 103 2153.000000
-2.73819995 -2.27850008 0.34680000 84 80 103 2010.000000
-2.74620008 -2.28520012 0.34880000 85 80 103 2053.000000
-2.73990011 -2.27990007 0.34900001 85 80 103 2092.000000
-2.74259996 -2.28220010 0.35030001 85 80 103 2114.000000
-2.74020004 -2.28009987 0.35100001 85 80 103 2150.000000
-2.74320006 -2.28270006 0.35240000 85 80 103 2210.000000
-2.74340010 -2.28279996 0.35350001 85 80 103 2096.000000
-2.73970008 -2.27970004 0.35400000 85 80 103 2100.000000
-2.73740005 -2.27780008 0.35470000 85 80 103 2135.000000
-2.73900008 -2.27920008 0.35589999 85 80 103 2017.000000
-2.74210000 -2.28169990 0.35730001 88 83 106 1989.000000
-2.74060011 -2.28049994 0.35810000 88 83 106 2075.000000
-2.74169993 -2.28139997 0.35929999 88 83 106 2128.000000
-2.74099994 -2.28080010 0.36019999 87 82 105 2064.000000
-2.73830009 -2.27850008 0.36080000 87 82 105 2085.000000
-2.73900008 -2.27909994 0.36190000 86 81 104 2082.000000
-2.73959994 -2.27959991 0.36300001 85 80 103 2100.000000
-2.74029994 -2.28020000 0.36410001 85 80 103 1975.000000
-2.73869991 -2.27889991 0.36489999 85 80 103 1892.000000
-2.74070001 -2.28060007 0.36620000 84 79 102 2032.000000
-2.73760009 -2.27799988 0.36680001 84 79 102 2025.000000
-2.73990011 -2.27990007 0.36809999 84 79 102 2050.000000
-2.73710012 -2.27760005 0.36870000 84 79 102 2060.000000
-2.73559999 -2.27640009 0.36960000 84 79 102 1878.000000
-2.73269987 -2.27390003 0.37020001 84 79 102 1939.000000
-2.73589993 -2.27659988 0.37160000 83 78 101 1821.000000
-2.73749995 -2.27789998 0.37279999 83 78 101 1992.000000
-2.73780012 -2.27819991 0.37390000 82 77 100 1860.000000
-2.73370004 -2.27480006 0.37430000 83 78 101 1957.000000
-2.73510003 -2.27589989 0.37549999 83 78 101 2035.000000
-2.73259997 -2.27390003 0.37619999 84 79 102 1989.000000
-2.73530006 -2.27609992 0.37760001 85 80 103 2192.000000
-2.73479986 -2.27559996 0.37850001 85 80 103 2167.000000
-2.74000001 -2.27999997 0.38020000 85 81 104 2196.000000
-2.73339987 -2.27449989 0.38029999 81 79 101 2253.000000
-2.73479986 -2.27559996 0.38150001 81 79 101 2457.000000
-2.73280001 -2.27399993 0.38220000 77 78 99 2335.000000
-2.73570013 -2.27640009 0.38370001 83 83 107 2407.000000
-2.73239994 -2.27370000 0.38420001 83 83 107 2517.000000
-2.73269987 -2.27390003 0.38530001 89 89 117 3160.000000
-2.73360014 -2.27460003 0.38640001 82 81 112 5628.000000
-2.73350000 -2.27460003 0.38740000 82 81 112 11232.000000
-2.73329997 -2.27440000 0.38830000 80 79 110 19746.000000
-2.73360014 -2.27469993 0.38940001 108 107 139 31974.000000
-2.73409986 -2.27509999 0.39050001 108 107 139 41735.000000
-2.73320007 -2.27430010 0.39140001 146 145 176 48414.000000
-2.73280001 -2.27399993 0.39230001 212 214 239 50307.000000
-2.73220015 -2.27340007 0.39320001 212 214 239 50347.000000
-2.73239994 -2.27360010 0.39430001 230 232 253 50327.000000
-2.73259997 -2.27379990 0.39530000 243 246 255 50326.000000
-2.73230004 -2.27349997 0.39629999 243 246 255 50230.000000
-2.73169994 -2.27300000 0.39719999 242 246 255 50470.000000
-2.73140001 -2.27279997 0.39809999 239 245 245 50513.000000
-2.73150015 -2.27290010 0.39910001 239 245 245 50621.000000
-2.73129988 -2.27270007 0.40009999 243 250 243 50644.000000
-2.73049998 -2.27200007 0.40099999 243 253 242 50623.000000
-2.73049998 -2.27200007 0.40200001 243 253 242 50390.000000
-2.73029995 -2.27189994 0.40300000 240 250 241 50233.000000
-2.73000002 -2.27160001 0.40400001 243 249 247 50196.000000
-2.73169994 -2.27309990 0.40520000 243 249 247 48989.000000
-2.73500013 -2.27579999 0.40669999 248 253 255 39939.000000
-2.74180007 -2.28150010 0.40880001 246 250 253 28392.000000
-2.76250005 -2.29870009 0.41290000 238 242 243 17289.000000
-2.77559996 -2.30830002 0.31930000 126 124 125 14778.000000
-2.76119995 -2.29620004 0.31860000 135 136 138 22703.000000
-2.75349998 -2.28990006 0.31880000 135 136 138 33660.000000
-2.75099993 -2.28780007 0.31950000 166 169 174 40957.000000
-2.75020003 -2.28719997 0.32040000 205 208 215 43264.000000
-2.74849987 -2.28579998 0.32120001 205 208 215 38221.000000
-2.75059986 -2.28749990 0.32249999 238 242 253 31710.000000
-2.74889994 -2.28609991 0.32330000 219 222 237 22710.000000
-2.74800014 -2.28530002 0.32420000 219 222 237 14549.000000
-2.74860001 -2.28579998 0.32530001 181 184 201 7646.000000
-2.74860001 -2.28579998 0.32630000 135 138 157 3875.000000
-2.74769998 -2.28509998 0.32720000 135 138 157 2850.000000
-2.74950004 -2.28660011 0.32839999 102 104 125 2517.000000
-2.75180006 -2.28850007 0.32969999 90 90 114 2410.000000
-2.74489999 -2.28279996 0.32990000 90 90 114 2400.000000
-2.74679995 -2.28439999 0.33109999 88 88 114 2235.000000
-2.74460006 -2.28250003 0.33190000 86 86 112 2253.000000
-2.74539995 -2.28320003 0.33300000 86 86 112 2135.000000
-2.74889994 -2.28600001 0.33440000 88 86 110 2142.000000
-2.74550009 -2.28320003 0.33500001 86 84 106 2078.000000
-2.74510002 -2.28290009 0.33590001 86 84 106 2014.000000
-2.74169993 -2.27999997 0.33649999 84 82 104 2042.000000
-2.74449992 -2.28240013 0.33790001 84 82 104 1989.000000
-2.74090004 -2.27939987 0.33840001 84 82 104 1985.000000
-2.74620008 -2.28380013 0.34009999 84 82 104 2092.000000
-2.74510002 -2.28290009 0.34099999 84 82 104 2064.000000
-2.74550009 -2.28320003 0.34200001 84 82 104 2121.000000
-2.74819994 -2.28550005 0.34340000 83 79 102 2060.000000
-2.74539995 -2.28320003 0.34400001 81 77 100 2035.000000
-2.74670005 -2.28419995 0.34520000 81 77 100 2010.000000
-2.74329996 -2.28139997 0.34580001 86 81 104 2071.000000
-2.74709988 -2.28450012 0.34729999 86 81 104 2192.000000
-2.74390006 -2.28189993 0.34790000 86 81 104 2171.000000
-2.74580002 -2.28340006 0.34909999 86 81 104 2053.000000
-2.74370003 -2.28169990 0.34990001 86 81 104 2135.000000
-2.74460006 -2.28250003 0.35100001 86 81 104 2310.000000
-2.74259996 -2.28080010 0.35170001 88 80 104 2303.000000
-2.74000001 -2.27869987 0.35240000 88 80 104 2225.000000
-2.73650002 -2.27570009 0.35299999 88 80 104 2085.000000
-2.73679996 -2.27600002 0.35400000 88 80 104 1996.000000
-2.74230003 -2.28049994 0.35569999 88 80 104 1982.000000
-2.74119997 -2.27959991 0.35659999 88 80 104 1982.000000
-2.73760009 -2.27659988 0.35710001 86 81 104 1996.000000
-2.74250007 -2.28069997 0.35879999 86 81 104 1989.000000
-2.74410009 -2.28200006 0.36000001 86 81 104 2003.000000
-2.73959994 -2.27839994 0.36039999 86 81 104 2117.000000
-2.74200010 -2.28029990 0.36170000 85 80 103 2064.000000
-2.73959994 -2.27839994 0.36240000 85 80 103 2067.000000
-2.73830009 -2.27719998 0.36330000 85 80 103 2003.000000
-2.74090004 -2.27939987 0.36460000 84 79 102 1867.000000
-2.74340010 -2.28150010 0.36600000 84 79 102 1875.000000
-2.73629999 -2.27559996 0.36600000 84 79 102 1878.000000
-2.73810005 -2.27710009 0.36730000 84 79 102 1978.000000
-2.73699999 -2.27620006 0.36809999 84 79 102 2092.000000
-2.73939991 -2.27819991 0.36950001 83 78 101 1950.000000
-2.73839998 -2.27729988 0.37029999 83 78 101 1821.000000
-2.73959994 -2.27830005 0.37149999 83 78 101 1842.000000
-2.73819995 -2.27719998 0.37230000 83 78 101 2025.000000
-2.74210000 -2.28040004 0.37390000 84 79 102 1882.000000
-2.73449993 -2.27410007 0.37380001 84 79 102 1914.000000
-2.73589993 -2.27519989 0.37500000 84 79 102 2067.000000
-2.73549986 -2.27500010 0.37599999 85 80 103 2110.000000
-2.73860002 -2.27749991 0.37740001 85 80 103 2100.000000
-2.73320007 -2.27300000 0.37770000 85 80 103 2021.000000
-2.73580003 -2.27519989 0.37900001 85 80 103 2092.000000
-2.73350000 -2.27320004 0.37970001 85 80 103 2303.000000
-2.73850012 -2.27740002 0.38139999 87 84 105 2371.000000
-2.73950005 -2.27819991 0.38260001 85 81 104 2328.000000
-2.73460007 -2.27419996 0.38290000 85 81 104 2217.000000
-2.73449993 -2.27410007 0.38389999 84 80 105 2367.000000
-2.73729992 -2.27640009 0.38530001 84 81 110 2371.000000
-2.73280001 -2.27270007 0.38569999 84 81 110 2707.000000
-2.73329997 -2.27309990 0.38670000 87 84 115 4400.000000
-2.73510003 -2.27460003 0.38800001 93 89 122 8264.000000
-2.73479986 -2.27430010 0.38900000 93 89 122 15560.000000
-2.73390007 -2.27349997 0.38980001 97 96 130 25600.000000
-2.73300004 -2.27279997 0.39070001 101 100 134 36285.000000
-2.73290014 -2.27279997 0.39170000 101 100 134 45596.000000
-2.73230004 -2.27230000 0.39260000 152 151 182 50051.000000
-2.73309994 -2.27290010 0.39379999 206 206 232 50138.000000
-2.73189998 -2.27189994 0.39460000 206 206 232 50177.000000
-2.73269987 -2.27259994 0.39570001 245 248 255 50269.000000
-2.73269987 -2.27250004 0.39669999 243 247 255 50449.000000
-2.73199987 -2.27200007 0.39760000 243 247 255 50471.000000
-2.73189998 -2.27189994 0.39860001 235 243 245 50578.000000
-2.73140001 -2.27150011 0.39960000 244 253 248 50737.000000
-2.73239994 -2.27230000 0.40070000 244 253 248 50490.000000
-2.73119998 -2.27130008 0.40149999 247 255 248 50472.000000
-2.73150015 -2.27150011 0.40259999 237 247 238 50471.000000
-2.73169994 -2.27180004 0.40360001 237 247 238 50231.000000
-2.73210001 -2.27209997 0.40470001 239 245 243 46967.000000
-2.73650002 -2.27570009 0.40630001 247 252 255 36842.000000
-2.74650002 -2.28399992 0.40880001 247 251 252 24167.000000
-2.78139997 -2.31169987 0.32040000 127 127 127 12460.000000
-2.76569986 -2.29879999 0.31959999 127 127 127 18746.000000
-2.75679994 -2.29130006 0.31959999 166 169 174 27289.000000
-2.75279999 -2.28800011 0.32020000 166 169 174 32789.000000
-2.75110006 -2.28660011 0.32100001 205 208 215 31796.000000
-2.75010014 -2.28579998 0.32190001 238 242 253 24453.000000
-2.74989986 -2.28559995 0.32280001 238 242 253 16192.000000
-2.74940014 -2.28520012 0.32380000 219 222 237 8978.000000
-2.74849987 -2.28439999 0.32470000 181 184 201 4410.000000
-2.75390005 -2.28889990 0.32640001 181 184 201 2925.000000
-2.74860001 -2.28450012 0.32670000 135 138 157 2528.000000
-2.75230002 -2.28760004 0.32820001 102 104 125 2367.000000
-2.75029993 -2.28590012 0.32890001 102 104 125 2321.000000
-2.74930000 -2.28509998 0.32980001 90 90 114 2364.000000
-2.74629998 -2.28259993 0.33050001 88 88 114 2242.000000
-2.74510002 -2.28169990 0.33129999 88 88 114 2103.000000
-2.74800014 -2.28399992 0.33270001 86 86 112 2060.000000
-2.74979997 -2.28550005 0.33390000 88 86 110 2067.000000
-2.74569988 -2.28209996 0.33440000 88 86 110 2053.000000
-2.74769998 -2.28380013 0.33570001 86 84 106 2042.000000
-2.74909997 -2.28489995 0.33690000 84 82 104 2017.000000
-2.74819994 -2.28419995 0.33780000 84 82 104 1978.000000
-2.74460006 -2.28119993 0.33829999 84 82 104 2032.000000
-2.74559999 -2.28209996 0.33950001 84 82 104 1957.000000
-2.74740005 -2.28349996 0.34070000 84 82 104 2142.000000
-2.74690008 -2.28320003 0.34160000 84 82 104 2003.000000
-2.74399996 -2.28069997 0.34230000 83 79 102 1950.000000
-2.75049996 -2.28609991 0.34410000 83 79 102 2057.000000
-2.74239993 -2.27939987 0.34410000 81 77 100 1950.000000
-2.74049997 -2.27780008 0.34490001 86 81 104 1967.000000
-2.74559999 -2.28200006 0.34650001 86 81 104 2085.000000
-2.74730015 -2.28340006 0.34770000 86 81 104 2110.000000
-2.74250007 -2.27950001 0.34810001 86 81 104 2189.000000
-2.74410009 -2.28080010 0.34940001 86 81 104 2153.000000
-2.73990011 -2.27729988 0.34979999 86 81 104 2225.000000
-2.74530005 -2.28180003 0.35150000 88 80 104 2203.000000
-2.74009991 -2.27740002 0.35190001 88 80 104 2207.000000
-2.74219990 -2.27920008 0.35310000 88 80 104 2057.000000
-2.74320006 -2.27999997 0.35429999 88 80 104 2000.000000
-2.74049997 -2.27780008 0.35490000 88 80 104 1942.000000
-2.73760009 -2.27539992 0.35560000 88 80 104 1964.000000
-2.73790002 -2.27570009 0.35659999 86 81 104 1953.000000
-2.73860002 -2.27620006 0.35769999 86 81 104 1946.000000
-2.74349999 -2.28029990 0.35929999 86 81 104 1982.000000
-2.74239993 -2.27929997 0.36019999 86 81 104 2153.000000
-2.74090004 -2.27810001 0.36100000 86 81 104 2232.000000
-2.73970008 -2.27710009 0.36190000 85 80 103 2082.000000
-2.73939991 -2.27690005 0.36280000 85 80 103 2017.000000
-2.73740005 -2.27519989 0.36359999 85 80 103 1928.000000
-2.74250007 -2.27950001 0.36530000 84 79 102 1842.000000
-2.74020004 -2.27760005 0.36600000 84 79 102 1885.000000
-2.74340010 -2.28020000 0.36739999 84 79 102 1964.000000
-2.73790002 -2.27559996 0.36770001 84 79 102 2042.000000
-2.74230003 -2.27929997 0.36930001 83 78 101 2064.000000
-2.74090004 -2.27810001 0.37009999 83 78 101 1885.000000
-2.73839998 -2.27600002 0.37079999 83 78 101 1764.000000
-2.74000001 -2.27740002 0.37200001 83 78 101 1960.000000
-2.73860002 -2.27620006 0.37279999 83 78 101 2035.000000
-2.74130011 -2.27850008 0.37419999 84 79 102 2025.000000
-2.73339987 -2.27189994 0.37410000 84 79 102 2039.000000
-2.73659992 -2.27449989 0.37560001 84 79 102 2142.000000
-2.73670006 -2.27460003 0.37660000 85 80 103 2028.000000
-2.73880005 -2.27640009 0.37790000 85 80 103 2082.000000
-2.73309994 -2.27160001 0.37810001 85 80 103 2096.000000
-2.73189998 -2.27069998 0.37889999 85 80 103 2114.000000
-2.73780012 -2.27550006 0.38069999 87 84 105 2207.000000
-2.73689985 -2.27480006 0.38159999 87 84 105 2142.000000
-2.73449993 -2.27279997 0.38229999 85 81 104 2171.000000
-2.73659992 -2.27449989 0.38360000 84 80 105 2317.000000
-2.73440003 -2.27270007 0.38429999 84 80 105 2210.000000
-2.73530006 -2.27349997 0.38540000 84 81 110 2367.000000
-2.73339987 -2.27189994 0.38620001 87 84 115 2575.000000
-2.73350000 -2.27189994 0.38720000 87 84 115 3592.000000
-2.73609996 -2.27410007 0.38859999 93 89 122 6978.000000
-2.73539996 -2.27349997 0.38949999 97 96 130 12960.000000
-2.73399997 -2.27239990 0.39030001 97 96 130 21267.000000
-2.73360014 -2.27200007 0.39120001 101 100 134 32496.000000
-2.73329997 -2.27180004 0.39219999 152 151 182 42635.000000
-2.73290014 -2.27150011 0.39309999 152 151 182 50034.000000
-2.73320007 -2.27169991 0.39420000 206 206 232 50269.000000
-2.73399997 -2.27230000 0.39530000 245 248 255 50386.000000
-2.73379993 -2.27220011 0.39629999 245 248 255 50575.000000
