//X Y Z R G B Intensity
-2.69749999 -2.29789996 0.40180001 243 248 251 50595.000000
-2.69630003 -2.29690003 0.40259999 243 248 251 50576.000000
-2.69639993 -2.29699993 0.40369999 243 248 251 50532.000000
-2.69670010 -2.29719996 0.40470001 243 248 251 50489.000000
-2.69589996 -2.29649997 0.40560001 243 248 251 50554.000000
-2.69510007 -2.29589987 0.40650001 243 248 251 50492.000000
-2.69600010 -2.29660010 0.40759999 243 251 253 50532.000000
-2.69679999 -2.29730010 0.40869999 240 248 250 50617.000000
-2.69679999 -2.29730010 0.40970001 241 249 251 50573.000000
-2.69580007 -2.29649997 0.41060001 241 249 251 50448.000000
-2.69490004 -2.29570007 0.41150001 242 250 253 50290.000000
-2.69460011 -2.29539990 0.41240001 243 248 254 50234.000000
-2.69510007 -2.29589987 0.41350001 243 248 254 40589.000000
-2.70270014 -2.30229998 0.41569999 244 249 255 23185.000000
-2.75559998 -2.34610009 0.30870000 104 96 120 30664.000000
-2.72589993 -2.32080007 0.30630001 104 96 120 45964.000000
-2.71810007 -2.31410003 0.30649999 173 170 191 50238.000000
-2.71799994 -2.31410003 0.30750000 232 234 249 50499.000000
-2.71860003 -2.31459999 0.30849999 232 234 249 50414.000000
-2.71740007 -2.31360006 0.30939999 244 248 255 50376.000000
-2.71679997 -2.31310010 0.31040001 245 253 255 50298.000000
-2.71700001 -2.31320000 0.31140000 245 253 255 50397.000000
-2.71659994 -2.31290007 0.31230000 239 247 249 50259.000000
-2.71679997 -2.31299996 0.31340000 242 247 250 50111.000000
-2.71609998 -2.31240010 0.31430000 242 247 250 50299.000000
-2.71720004 -2.31340003 0.31540000 242 247 250 50479.000000
-2.71640015 -2.31270003 0.31630000 242 247 250 50481.000000
-2.71600008 -2.31240010 0.31729999 242 247 250 50481.000000
-2.71549988 -2.31189990 0.31819999 242 247 250 50400.000000
-2.71519995 -2.31169987 0.31920001 242 247 250 50320.000000
-2.71530008 -2.31180000 0.32020000 242 247 250 50261.000000
-2.71469998 -2.31119990 0.32120001 242 247 250 50132.000000
-2.71449995 -2.31099987 0.32210001 242 247 250 50079.000000
-2.71499991 -2.31150007 0.32319999 242 247 250 50168.000000
-2.71479988 -2.31139994 0.32420000 242 247 250 50205.000000
-2.71370006 -2.31040001 0.32510000 241 246 249 50383.000000
-2.71409988 -2.31069994 0.32609999 241 246 249 50283.000000
-2.71460009 -2.31119990 0.32720000 241 246 249 50340.000000
-2.71359992 -2.31029987 0.32810000 242 247 250 50403.000000
-2.71399999 -2.31069994 0.32910001 242 247 250 50341.000000
-2.71250010 -2.30929995 0.32990000 242 247 250 50247.000000
-2.71199989 -2.30889988 0.33090001 242 247 250 50326.000000
-2.71219993 -2.30909991 0.33190000 242 247 250 50552.000000
-2.71199989 -2.30900002 0.33289999 242 247 250 50345.000000
-2.71219993 -2.30909991 0.33390000 243 248 251 50425.000000
-2.71149993 -2.30850005 0.33480000 243 248 251 50447.000000
-2.71079993 -2.30789995 0.33579999 243 248 251 50367.000000
-2.71199989 -2.30900002 0.33690000 243 246 251 50344.000000
-2.71250010 -2.30940008 0.33800000 243 246 251 50383.000000
-2.71160007 -2.30859995 0.33890000 243 246 251 50228.000000
-2.71140003 -2.30850005 0.33989999 243 247 250 50173.000000
-2.71110010 -2.30819988 0.34079999 243 247 250 50306.000000
-2.71190000 -2.30889988 0.34189999 243 247 246 50424.000000
-2.70980000 -2.30710006 0.34270000 243 248 244 50535.000000
-2.71070004 -2.30780005 0.34380001 243 248 244 50532.000000
-2.71050000 -2.30760002 0.34480000 243 248 244 50490.000000
-2.70950007 -2.30679989 0.34560001 243 248 242 50471.000000
-2.70970011 -2.30699992 0.34670001 243 248 242 50471.000000
-2.70919991 -2.30660009 0.34760001 243 248 242 50329.000000
-2.70919991 -2.30660009 0.34860000 239 244 240 50389.000000
-2.70869994 -2.30620003 0.34959999 239 244 240 50390.000000
-2.70729995 -2.30489993 0.35040000 240 244 245 50256.000000
-2.70959997 -2.30690002 0.35170001 242 245 250 46975.000000
-2.70840001 -2.30590010 0.35249999 242 245 250 38796.000000
-2.70790005 -2.30550003 0.35350001 245 247 255 28639.000000
-2.70799994 -2.30550003 0.35450000 242 244 255 16653.000000
-2.70700002 -2.30469990 0.35540000 242 244 255 8860.000000
-2.70970011 -2.30699992 0.35670000 214 215 235 4375.000000
-2.70880008 -2.30620003 0.35760000 156 156 180 2964.000000
-2.70599985 -2.30380011 0.35820001 156 156 180 2678.000000
-2.70580006 -2.30360007 0.35920000 104 104 132 2539.000000
-2.70880008 -2.30620003 0.36059999 90 87 118 2435.000000
-2.70569992 -2.30360007 0.36120000 90 87 118 2496.000000
-2.70760012 -2.30520010 0.36250001 94 91 122 2542.000000
-2.70580006 -2.30360007 0.36320001 90 87 118 3067.000000
-2.70309997 -2.30139995 0.36390001 90 87 118 3932.000000
-2.70609999 -2.30390000 0.36530000 84 81 112 6828.000000
-2.70459986 -2.30259991 0.36610001 100 97 128 13182.000000
-2.70420003 -2.30229998 0.36700001 100 97 128 20889.000000
-2.70429993 -2.30240011 0.36809999 142 142 170 29550.000000
-2.70469999 -2.30270004 0.36910000 194 194 220 38364.000000
-2.70400000 -2.30209994 0.37000000 194 194 220 48160.000000
-2.70550013 -2.30340004 0.37120000 227 229 252 50353.000000
-2.70359993 -2.30180001 0.37200001 238 241 255 50338.000000
-2.70459986 -2.30270004 0.37310001 238 241 255 50375.000000
-2.70389986 -2.30209994 0.37400001 245 248 255 50259.000000
-2.70379996 -2.30189991 0.37500000 245 252 255 50222.000000
-2.70319986 -2.30139995 0.37590000 245 252 255 50319.000000
-2.70230007 -2.30060005 0.37680000 240 247 253 50380.000000
-2.70280004 -2.30110002 0.37790000 238 246 248 50358.000000
-2.70300007 -2.30130005 0.37889999 238 246 248 50501.000000
-2.70210004 -2.30049992 0.37979999 241 252 248 50441.000000
-2.70219994 -2.30060005 0.38080001 241 252 246 50503.000000
-2.70210004 -2.30049992 0.38180000 241 252 246 50567.000000
-2.70179987 -2.30019999 0.38280001 238 247 242 50504.000000
-2.70140004 -2.29990005 0.38370001 242 248 248 50263.000000
-2.70160007 -2.30010009 0.38470000 242 248 248 50400.000000
-2.70239997 -2.30080009 0.38589999 242 247 250 50439.000000
-2.70050001 -2.29909992 0.38659999 242 247 250 50443.000000
-2.70079994 -2.29940009 0.38760000 242 247 250 50381.000000
-2.70090008 -2.29949999 0.38870001 242 247 250 50226.000000
-2.70060015 -2.29920006 0.38960001 242 247 250 50442.000000
-2.70029998 -2.29900002 0.39060000 242 247 250 50485.000000
-2.70000005 -2.29879999 0.39150000 242 247 250 50570.000000
-2.69989991 -2.29859996 0.39250001 242 247 250 50549.000000
-2.69939995 -2.29820013 0.39350000 242 247 250 50444.000000
-2.69919991 -2.29800010 0.39440000 242 247 250 50445.000000
-2.69980001 -2.29850006 0.39550000 243 248 251 50637.000000
-2.69899988 -2.29789996 0.39640000 243 248 251 50572.000000
-2.69849992 -2.29740000 0.39730000 243 248 251 50425.000000
-2.69860005 -2.29760003 0.39840001 243 248 251 50466.000000
-2.69969988 -2.29839993 0.39950001 243 248 251 50505.000000
-2.69799995 -2.29699993 0.40030000 243 248 251 50467.000000
-2.69799995 -2.29699993 0.40130001 243 248 251 50530.000000
-2.69679999 -2.29600000 0.40210000 243 248 251 50470.000000
-2.69770002 -2.29679990 0.40329999 243 248 251 50446.000000
-2.69689989 -2.29609990 0.40410000 243 248 251 50367.000000
-2.69720006 -2.29629993 0.40520000 243 248 251 50307.000000
-2.69729996 -2.29640007 0.40619999 243 248 251 50326.000000
-2.69659996 -2.29579997 0.40709999 241 250 249 50328.000000
-2.69679999 -2.29600000 0.40810001 238 246 248 50510.000000
-2.69589996 -2.29530001 0.40900001 238 246 248 50621.000000
-2.69610000 -2.29539990 0.41000000 240 248 250 50408.000000
-2.69689989 -2.29609990 0.41119999 242 250 253 50406.000000
-2.69670010 -2.29589987 0.41209999 242 250 253 50386.000000
-2.69499993 -2.29449987 0.41290000 243 248 254 50089.000000
-2.69679999 -2.29600000 0.41409999 244 249 255 36221.000000
-2.70709991 -2.30469990 0.41670001 244 249 255 20271.000000
-2.73449993 -2.32679987 0.30680001 108 100 124 39467.000000
-2.72119999 -2.31550002 0.30630001 179 176 197 50122.000000
-2.71969986 -2.31419992 0.30710000 179 176 197 50353.000000
-2.71889997 -2.31349993 0.30800000 234 236 251 50436.000000
-2.71959996 -2.31419992 0.30910000 240 247 255 50332.000000
-2.71799994 -2.31270003 0.30989999 240 247 255 50258.000000
-2.71860003 -2.31330013 0.31099999 242 252 254 50395.000000
-2.71770000 -2.31250000 0.31189999 239 249 250 50480.000000
-2.71759987 -2.31240010 0.31290001 239 249 250 50298.000000
-2.71860003 -2.31330013 0.31400001 240 248 250 50334.000000
-2.71710014 -2.31200004 0.31479999 242 247 250 50241.000000
-2.71710014 -2.31200004 0.31590000 242 247 250 50357.000000
-2.71640015 -2.31139994 0.31680000 242 247 250 50300.000000
-2.71659994 -2.31159997 0.31779999 242 247 250 50378.000000
-2.71640015 -2.31139994 0.31880000 242 247 250 50461.000000
-2.71589994 -2.31089997 0.31970000 242 247 250 50261.000000
-2.71569991 -2.31080008 0.32069999 242 247 250 50186.000000
-2.71630001 -2.31130004 0.32179999 242 247 250 50299.000000
-2.71580005 -2.31089997 0.32269999 242 247 250 50441.000000
-2.71510005 -2.31029987 0.32370001 242 247 250 50263.000000
-2.71530008 -2.31049991 0.32470000 242 247 250 50400.000000
-2.71549988 -2.31069994 0.32570001 241 246 249 50420.000000
-2.71479988 -2.31010008 0.32659999 241 246 249 50321.000000
-2.71420002 -2.30949998 0.32760000 241 246 249 50208.000000
-2.71409988 -2.30940008 0.32859999 242 247 250 50303.000000
-2.71420002 -2.30949998 0.32960001 242 247 250 50264.000000
-2.71370006 -2.30909991 0.33050001 242 247 250 50343.000000
-2.71210003 -2.30769992 0.33129999 242 247 250 50174.000000
-2.71329999 -2.30879998 0.33250001 242 247 250 50304.000000
-2.71250010 -2.30809999 0.33340001 242 247 250 50553.000000
-2.71350002 -2.30889988 0.33450001 243 248 251 50616.000000
-2.71320009 -2.30870008 0.33550000 243 248 251 50445.000000
-2.71180010 -2.30749989 0.33629999 243 248 251 50407.000000
-2.71289992 -2.30839992 0.33750001 243 246 251 50595.000000
-2.71250010 -2.30809999 0.33840001 243 246 251 50596.000000
-2.71250010 -2.30809999 0.33939999 243 246 251 50405.000000
-2.71180010 -2.30749989 0.34029999 243 247 250 50229.000000
-2.71059990 -2.30649996 0.34119999 243 247 246 50158.000000
-2.71000004 -2.30599999 0.34209999 243 247 246 50271.000000
-2.71120000 -2.30699992 0.34330001 243 248 244 50387.000000
-2.71000004 -2.30599999 0.34410000 243 248 244 50390.000000
-2.71020007 -2.30609989 0.34520000 243 248 244 50270.000000
-2.71099997 -2.30679989 0.34630001 243 248 242 50327.000000
-2.71050000 -2.30640006 0.34720001 243 248 242 50328.000000
-2.71059990 -2.30649996 0.34819999 243 248 242 50327.000000
-2.71040010 -2.30629992 0.34920001 239 244 240 50328.000000
-2.71020007 -2.30620003 0.35020000 240 244 245 50231.000000
-2.70970011 -2.30570006 0.35110000 240 244 245 50214.000000
-2.70900011 -2.30509996 0.35200000 242 245 250 49825.000000
-2.70910001 -2.30520010 0.35310000 245 247 255 41239.000000
-2.70740008 -2.30380011 0.35380000 245 247 255 29746.000000
-2.70779991 -2.30410004 0.35490000 242 244 255 19082.000000
-2.70650005 -2.30290008 0.35569999 214 215 235 10835.000000
-2.71040010 -2.30629992 0.35720000 214 215 235 5307.000000
-2.70179987 -2.29890013 0.35710001 156 156 180 3364.000000
-2.71050000 -2.30640006 0.35929999 104 104 132 2732.000000
-2.71099997 -2.30679989 0.36030000 104 104 132 2639.000000
-2.70740008 -2.30380011 0.36090001 90 87 118 2585.000000
-2.70499992 -2.30170012 0.36160001 94 91 122 2878.000000
-2.70550013 -2.30220008 0.36260000 94 91 122 3389.000000
-2.70620012 -2.30270004 0.36370000 90 87 118 5250.000000
-2.70650005 -2.30299997 0.36480001 84 81 112 10832.000000
-2.70609999 -2.30270004 0.36570001 84 81 112 18825.000000
-2.70639992 -2.30290008 0.36680001 100 97 128 26571.000000
-2.70560002 -2.30220008 0.36770001 142 142 170 35117.000000
-2.70519996 -2.30189991 0.36860001 142 142 170 43150.000000
-2.70490003 -2.30159998 0.36960000 194 194 220 50076.000000
-2.70510006 -2.30180001 0.37059999 227 229 252 50317.000000
-2.70510006 -2.30180001 0.37160000 227 229 252 50356.000000
-2.70440006 -2.30119991 0.37250000 238 241 255 50398.000000
-2.70510006 -2.30180001 0.37360001 245 248 255 50457.000000
-2.70410013 -2.30100012 0.37450001 245 248 255 50299.000000
-2.70429993 -2.30110002 0.37549999 245 252 255 50298.000000
-2.70270014 -2.29970002 0.37630001 240 247 253 50243.000000
-2.70350003 -2.30040002 0.37740001 240 247 253 50319.000000
-2.70359993 -2.30049992 0.37840000 238 246 248 50481.000000
-2.70340014 -2.30040002 0.37940001 241 252 248 50633.000000
-2.70210004 -2.29920006 0.38020000 241 252 248 50526.000000
-2.70289993 -2.29990005 0.38130000 241 252 246 50567.000000
-2.70219994 -2.29929996 0.38220000 238 247 242 50547.000000
-2.70230007 -2.29940009 0.38330001 238 247 242 50525.000000
-2.70219994 -2.29929996 0.38420001 242 248 248 50441.000000
-2.70099998 -2.29830003 0.38510001 242 247 250 50403.000000
-2.70190001 -2.29900002 0.38620001 242 247 250 50441.000000
-2.70200014 -2.29909992 0.38720000 242 247 250 50282.000000
-2.70160007 -2.29879999 0.38820001 242 247 250 50226.000000
-2.70109987 -2.29839993 0.38909999 242 247 250 50362.000000
-2.70130014 -2.29859996 0.39010000 242 247 250 50505.000000
-2.70140004 -2.29859996 0.39120001 242 247 250 50569.000000
-2.70079994 -2.29809999 0.39210001 242 247 250 50570.000000
-2.69959998 -2.29710007 0.39289999 242 247 250 50446.000000
-2.70029998 -2.29769993 0.39399999 242 247 250 50423.000000
-2.70000005 -2.29740000 0.39500001 242 247 250 50593.000000
-2.69959998 -2.29710007 0.39590001 243 248 251 50466.000000
-2.69959998 -2.29710007 0.39690000 243 248 251 50572.000000
-2.69910002 -2.29670000 0.39780000 243 248 251 50707.000000
-2.69939995 -2.29699993 0.39890000 243 248 251 50529.000000
-2.69810009 -2.29589987 0.39969999 243 248 251 50553.000000
-2.69899988 -2.29660010 0.40079999 243 248 251 50384.000000
-2.69840002 -2.29609990 0.40180001 243 248 251 50386.000000
-2.69829988 -2.29600000 0.40279999 243 248 251 50406.000000
-2.69740009 -2.29519987 0.40360001 243 248 251 50428.000000
-2.69779992 -2.29559994 0.40470001 243 248 251 50553.000000
-2.69799995 -2.29570007 0.40570000 243 248 251 50307.000000
-2.69779992 -2.29550004 0.40669999 241 250 249 50406.000000
-2.69749999 -2.29530001 0.40759999 241 250 249 50532.000000
-2.69619989 -2.29419994 0.40849999 238 246 248 50534.000000
-2.69560003 -2.29369998 0.40939999 238 246 248 50451.000000
-2.69670010 -2.29469991 0.41049999 240 248 250 50512.000000
-2.69659996 -2.29460001 0.41150001 242 250 253 50449.000000
-2.69479990 -2.29299998 0.41229999 242 250 253 50274.000000
-2.69600010 -2.29410005 0.41350001 243 248 254 46314.000000
-2.70160007 -2.29879999 0.41530001 244 249 255 29542.000000
-2.72160006 -2.31579995 0.41940001 242 245 254 14050.000000
-2.75390005 -2.34200001 0.30829999 108 100 124 32692.000000
-2.72709990 -2.31920004 0.30630001 108 100 124 47017.000000
-2.72049999 -2.31360006 0.30660000 179 176 197 50236.000000
-2.72009993 -2.31320000 0.30759999 234 236 251 50373.000000
-2.71910000 -2.31240010 0.30849999 234 236 251 50239.000000
-2.71899986 -2.31229997 0.30939999 240 247 255 50219.000000
-2.71829987 -2.31169987 0.31040001 242 252 254 50240.000000
-2.71869993 -2.31200004 0.31140000 242 252 254 50316.000000
-2.71780014 -2.31130004 0.31230000 239 249 250 50358.000000
-2.71850014 -2.31189990 0.31340000 240 248 250 50239.000000
-2.71829987 -2.31169987 0.31439999 240 248 250 50183.000000
-2.71780014 -2.31130004 0.31529999 242 247 250 50184.000000
-2.71670008 -2.31029987 0.31619999 242 247 250 50205.000000
-2.71740007 -2.31099987 0.31729999 242 247 250 50148.000000
-2.71710014 -2.31069994 0.31830001 242 247 250 50204.000000
-2.71650004 -2.31010008 0.31920001 242 247 250 50223.000000
-2.71759987 -2.31110001 0.32030001 242 247 250 50259.000000
-2.71609998 -2.30979991 0.32120001 242 247 250 50282.000000
-2.71580005 -2.30959988 0.32210001 242 247 250 50244.000000
-2.71670008 -2.31040001 0.32330000 242 247 250 50338.000000
-2.71609998 -2.30979991 0.32420000 242 247 250 50320.000000
-2.71549988 -2.30929995 0.32510000 242 247 250 50422.000000
-2.71609998 -2.30979991 0.32620001 242 247 250 50420.000000
-2.71560001 -2.30940008 0.32710001 242 247 250 50301.000000
-2.71560001 -2.30940008 0.32810000 242 247 250 50401.000000
-2.71479988 -2.30870008 0.32910001 242 247 250 50444.000000
-2.71490002 -2.30879998 0.33010000 242 247 250 50549.000000
-2.71530008 -2.30909991 0.33109999 242 247 250 50401.000000
-2.71379995 -2.30780005 0.33190000 242 247 250 50228.000000
-2.71440005 -2.30830002 0.33300000 242 247 250 50264.000000
-2.71359992 -2.30769992 0.33390000 242 247 250 50551.000000
-2.71409988 -2.30809999 0.33500001 242 247 250 50423.000000
-2.71289992 -2.30710006 0.33590001 242 247 250 50365.000000
-2.71199989 -2.30640006 0.33680001 243 247 250 50449.000000
-2.71350002 -2.30769992 0.33800000 243 247 250 50445.000000
-2.71280003 -2.30699992 0.33890000 243 247 250 50426.000000
-2.71239996 -2.30669999 0.33980000 243 247 248 50307.000000
-2.71169996 -2.30609989 0.34070000 243 247 248 50157.000000
-2.71180010 -2.30620003 0.34180000 243 247 248 50157.000000
-2.71219993 -2.30649996 0.34279999 243 247 246 50249.000000
-2.71140003 -2.30579996 0.34369999 243 247 246 50328.000000
-2.71099997 -2.30550003 0.34470001 243 248 244 50289.000000
-2.71070004 -2.30520010 0.34560001 243 248 244 50270.000000
-2.71059990 -2.30520010 0.34660000 243 248 244 50232.000000
-2.71059990 -2.30520010 0.34760001 243 248 244 50252.000000
-2.71070004 -2.30520010 0.34860000 243 247 246 50309.000000
-2.71079993 -2.30530000 0.34970000 243 247 246 50409.000000
-2.70980000 -2.30450010 0.35049999 242 246 247 50431.000000
-2.71020007 -2.30480003 0.35159999 238 241 246 50409.000000
-2.70849991 -2.30340004 0.35240000 238 241 246 50144.000000
-2.70919991 -2.30390000 0.35350001 239 242 249 44335.000000
-2.70919991 -2.30390000 0.35450000 248 250 255 34892.000000
-2.70749998 -2.30250001 0.35530001 248 250 255 23525.000000
-2.70869994 -2.30349994 0.35640001 241 243 255 15282.000000
-2.70840001 -2.30329990 0.35740000 202 203 221 7903.000000
-2.70779991 -2.30270004 0.35830000 202 203 221 4175.000000
-2.70499992 -2.30040002 0.35890001 160 161 182 3053.000000
-2.70529985 -2.30069995 0.36000001 108 109 139 2946.000000
-2.70840001 -2.30320001 0.36140001 108 109 139 3246.000000
-2.70550013 -2.30080009 0.36199999 95 96 127 4021.000000
-2.70620012 -2.30139995 0.36309999 88 89 119 7760.000000
-2.70740008 -2.30240011 0.36430001 88 89 119 15157.000000
-2.70709991 -2.30220008 0.36520001 104 105 133 23164.000000
-2.70690012 -2.30200005 0.36620000 144 146 171 32460.000000
-2.70599985 -2.30119991 0.36710000 144 146 171 40617.000000
-2.70630002 -2.30150008 0.36820000 194 196 219 48517.000000
-2.70650005 -2.30170012 0.36919999 226 229 248 50315.000000
-2.70609999 -2.30130005 0.37009999 226 229 248 50316.000000
-2.70550013 -2.30080009 0.37110001 233 236 251 50239.000000
-2.70609999 -2.30130005 0.37210000 241 245 255 50457.000000
-2.70569992 -2.30100012 0.37310001 241 245 255 50416.000000
-2.70510006 -2.30049992 0.37400001 243 248 254 50397.000000
-2.70469999 -2.30010009 0.37500000 241 246 250 50299.000000
-2.70400000 -2.29949999 0.37590000 241 246 250 50262.000000
-2.70499992 -2.30040002 0.37700000 235 243 245 50397.000000
-2.70400000 -2.29949999 0.37790000 236 245 244 50482.000000
-2.70480013 -2.30019999 0.37900001 236 245 244 50543.000000
-2.70480013 -2.30019999 0.38000000 241 250 247 50521.000000
-2.70319986 -2.29890013 0.38080001 242 251 248 50483.000000
-2.70340014 -2.29909992 0.38180000 242 251 248 50546.000000
-2.70270014 -2.29850006 0.38270000 241 247 245 50526.000000
-2.70330000 -2.29900002 0.38380000 242 248 248 50524.000000
-2.70370007 -2.29929996 0.38490000 242 248 248 50632.000000
-2.70350003 -2.29909992 0.38580000 242 247 250 50566.000000
-2.70230007 -2.29809999 0.38670000 242 247 250 50283.000000
-2.70219994 -2.29800010 0.38760000 242 247 250 50361.000000
-2.70230007 -2.29800010 0.38870001 242 247 250 50441.000000
-2.70260000 -2.29839993 0.38970000 242 247 250 50589.000000
-2.70160007 -2.29750013 0.39060000 242 247 250 50422.000000
-2.70219994 -2.29800010 0.39170000 242 247 250 50225.000000
-2.70130014 -2.29719996 0.39250001 242 247 250 50208.000000
-2.70090008 -2.29690003 0.39350000 242 247 250 50486.000000
-2.70140004 -2.29730010 0.39460000 242 247 250 50636.000000
-2.70039988 -2.29649997 0.39539999 243 248 251 50616.000000
-2.69980001 -2.29600000 0.39629999 243 248 251 50551.000000
-2.70090008 -2.29690003 0.39750001 243 248 251 50527.000000
-2.69980001 -2.29600000 0.39840001 243 248 251 50551.000000
-2.70050001 -2.29660010 0.39950001 243 248 251 50527.000000
-2.70020008 -2.29629993 0.40040001 243 248 251 50550.000000
-2.69969988 -2.29589987 0.40130001 243 248 251 50445.000000
-2.69899988 -2.29530001 0.40230000 243 248 251 50346.000000
-2.69819999 -2.29460001 0.40310001 243 248 251 50387.000000
-2.69899988 -2.29530001 0.40430000 243 248 251 50326.000000
-2.69829988 -2.29469991 0.40509999 243 248 251 50193.000000
-2.69910002 -2.29539990 0.40630001 243 248 251 50229.000000
-2.69840002 -2.29480004 0.40720001 240 249 248 50489.000000
-2.69770002 -2.29419994 0.40810001 240 249 248 50532.000000
-2.69749999 -2.29399991 0.40910000 238 247 246 50449.000000
-2.69810009 -2.29449987 0.41020000 240 248 250 50386.000000
-2.69749999 -2.29399991 0.41110000 242 250 252 50490.000000
-2.69679999 -2.29340005 0.41200000 242 250 252 50329.000000
-2.69779992 -2.29419994 0.41310000 243 248 252 50103.000000
-2.69720006 -2.29379988 0.41400000 245 250 255 41125.000000
-2.70490003 -2.30030012 0.41620001 245 250 255 24221.000000
-2.73390007 -2.32369995 0.30649999 108 100 124 41642.000000
-2.72350001 -2.31489992 0.30640000 180 177 198 50230.000000
-2.72200012 -2.31349993 0.30720001 180 177 198 50431.000000
-2.72090006 -2.31259990 0.30809999 235 237 252 50413.000000
-2.72070003 -2.31240010 0.30910000 238 245 255 50413.000000
-2.72020006 -2.31200004 0.31000000 238 245 255 50415.000000
-2.72000003 -2.31180000 0.31099999 240 250 252 50296.000000
-2.71910000 -2.31099987 0.31189999 238 248 247 50075.000000
-2.72029996 -2.31209993 0.31299999 238 248 247 50126.000000
-2.72000003 -2.31180000 0.31400001 240 248 250 50334.000000
-2.71860003 -2.31060004 0.31490001 242 247 250 50240.000000
-2.71969986 -2.31159997 0.31600001 242 247 250 50276.000000
-2.71889997 -2.31099987 0.31690001 242 247 250 50164.000000
-2.71840000 -2.31049991 0.31790000 242 247 250 50129.000000
-2.71720004 -2.30949998 0.31869999 242 247 250 50131.000000
-2.71819997 -2.31029987 0.31979999 242 247 250 50279.000000
-2.71780014 -2.30999994 0.32080001 242 247 250 50279.000000
-2.71780014 -2.30999994 0.32179999 242 247 250 50299.000000
-2.71829987 -2.31040001 0.32290000 242 247 250 50202.000000
-2.71790004 -2.30999994 0.32380000 242 247 250 50318.000000
-2.71689987 -2.30920005 0.32470000 242 247 250 50300.000000
-2.71729994 -2.30949998 0.32580000 242 247 250 50524.000000
-2.71619987 -2.30859995 0.32670000 242 247 250 50705.000000
-2.71580005 -2.30830002 0.32760000 242 247 250 50464.000000
-2.71519995 -2.30780005 0.32859999 242 247 250 50423.000000
-2.71460009 -2.30730009 0.32949999 242 247 250 50487.000000
-2.71499991 -2.30760002 0.33050001 242 247 250 50550.000000
-2.71460009 -2.30730009 0.33149999 242 247 250 50445.000000
-2.71479988 -2.30739999 0.33250001 242 247 250 50403.000000
-2.71429992 -2.30699992 0.33350000 242 247 250 50285.000000
-2.71490002 -2.30749989 0.33450001 242 247 250 50383.000000
-2.71420002 -2.30690002 0.33550000 242 247 250 50551.000000
-2.71490002 -2.30749989 0.33649999 242 247 250 50403.000000
-2.71379995 -2.30660009 0.33739999 243 247 248 50365.000000
-2.71359992 -2.30640006 0.33840001 243 247 248 50425.000000
-2.71379995 -2.30660009 0.33939999 243 247 248 50344.000000
-2.71449995 -2.30710006 0.34050000 243 247 248 50383.000000
-2.71370006 -2.30649996 0.34140000 243 247 248 50324.000000
-2.71390009 -2.30660009 0.34240001 243 247 248 50343.000000
-2.71269989 -2.30570006 0.34330001 243 247 248 50366.000000
-2.71300006 -2.30590010 0.34430000 243 247 246 50306.000000
-2.71149993 -2.30460000 0.34520000 243 247 246 50309.000000
-2.71230006 -2.30530000 0.34630001 243 247 246 50327.000000
-2.71169996 -2.30480003 0.34720001 243 247 248 50251.000000
-2.71110010 -2.30430007 0.34810001 243 247 248 50430.000000
-2.71169996 -2.30480003 0.34920001 244 248 249 50491.000000
-2.71140003 -2.30460000 0.35020000 246 250 253 50470.000000
-2.71129990 -2.30450010 0.35120001 246 250 253 50577.000000
-2.70989990 -2.30320001 0.35200000 240 245 248 50293.000000
-2.71079993 -2.30410004 0.35310000 235 240 244 50086.000000
-2.71050000 -2.30380011 0.35409999 235 240 244 46464.000000
-2.71050000 -2.30380011 0.35510001 239 244 250 37392.000000
-2.71050000 -2.30380011 0.35609999 244 248 255 27189.000000
-2.70989990 -2.30320001 0.35699999 244 248 255 17014.000000
-2.70760012 -2.30130005 0.35769999 230 234 243 9471.000000
-2.70989990 -2.30320001 0.35900000 209 212 227 4700.000000
-2.70599985 -2.29990005 0.35949999 209 212 227 3557.000000
-2.70799994 -2.30159998 0.36080000 134 138 165 3828.000000
-2.70790005 -2.30159998 0.36179999 101 104 137 5953.000000
-2.70609999 -2.29999995 0.36250001 101 104 137 11414.000000
-2.70849991 -2.30209994 0.36390001 98 102 131 19164.000000
-2.70830011 -2.30189991 0.36480001 140 144 169 28003.000000
-2.70760012 -2.30130005 0.36570001 140 144 169 37432.000000
-2.70770001 -2.30139995 0.36680001 191 196 216 44200.000000
-2.70790005 -2.30150008 0.36780000 226 232 246 50056.000000
-2.70650005 -2.30040002 0.36860001 226 232 246 50239.000000
-2.70740008 -2.30119991 0.36970001 238 245 255 50334.000000
-2.70720005 -2.30100012 0.37070000 233 241 244 50415.000000
-2.70670009 -2.30060005 0.37160000 233 241 244 50296.000000
-2.70679998 -2.30060005 0.37270001 239 244 247 50164.000000
-2.70609999 -2.29999995 0.37360001 239 245 245 50297.000000
-2.70499992 -2.29909992 0.37439999 239 245 245 50339.000000
-2.70490003 -2.29900002 0.37540001 237 243 241 50339.000000
-2.70499992 -2.29909992 0.37639999 238 242 241 50378.000000
-2.70529985 -2.29940009 0.37750000 238 242 241 50397.000000
-2.70499992 -2.29909992 0.37840000 240 244 245 50398.000000
-2.70560002 -2.29960012 0.37950000 243 247 248 50396.000000
-2.70519996 -2.29929996 0.38049999 243 247 248 50318.000000
-2.70490003 -2.29909992 0.38139999 242 246 247 50522.000000
-2.70330000 -2.29769993 0.38220000 238 244 244 50282.000000
-2.70370007 -2.29800010 0.38330001 238 244 244 50281.000000
-2.70389986 -2.29809999 0.38429999 242 247 250 50440.000000
-2.70300007 -2.29740000 0.38519999 242 247 250 50463.000000
-2.70350003 -2.29780006 0.38630000 242 247 250 50243.000000
-2.70190001 -2.29649997 0.38699999 242 247 250 50266.000000
-2.70219994 -2.29679990 0.38810000 242 247 250 50403.000000
-2.70249987 -2.29699993 0.38909999 242 247 250 50342.000000
-2.70230007 -2.29679990 0.39010000 242 247 250 50362.000000
-2.70190001 -2.29649997 0.39100000 242 247 250 50323.000000
-2.70169997 -2.29629993 0.39199999 242 247 250 50343.000000
-2.70179987 -2.29629993 0.39300001 242 247 250 50443.000000
-2.70200014 -2.29660010 0.39410001 242 247 250 50591.000000
-2.70200014 -2.29649997 0.39510000 242 247 250 50751.000000
-2.70140004 -2.29609990 0.39600000 243 248 251 50549.000000
-2.70160007 -2.29620004 0.39700001 243 248 251 50403.000000
-2.70009995 -2.29489994 0.39780000 243 248 251 50509.000000
-2.70050001 -2.29530001 0.39890000 243 248 251 50573.000000
-2.70050001 -2.29530001 0.39989999 243 248 251 50529.000000
-2.70060015 -2.29530001 0.40090001 243 248 251 50466.000000
-2.69969988 -2.29460001 0.40180001 243 248 251 50346.000000
-2.70029998 -2.29509997 0.40290001 243 248 251 50324.000000
-2.69959998 -2.29449987 0.40380001 243 248 251 50426.000000
-2.69939995 -2.29439998 0.40470001 243 248 251 50306.000000
-2.69849992 -2.29360008 0.40560001 243 248 251 50213.000000
-2.69810009 -2.29329991 0.40650001 243 248 251 50251.000000
-2.69899988 -2.29399991 0.40770000 239 248 247 50346.000000
-2.69930005 -2.29419994 0.40869999 237 246 245 50488.000000
-2.69860005 -2.29360008 0.40959999 241 249 251 50575.000000
-2.69709992 -2.29239988 0.41040000 241 249 251 50514.000000
-2.69829988 -2.29340005 0.41159999 242 250 253 50490.000000
-2.69749999 -2.29279995 0.41249999 242 247 253 50491.000000
-2.69790006 -2.29309988 0.41350001 242 247 253 48646.000000
-2.70070004 -2.29539990 0.41499999 245 250 255 33825.000000
-2.71810007 -2.31019998 0.41870001 244 247 255 17228.000000
-2.75000000 -2.33599997 0.30770001 106 98 122 35339.000000
-2.72630000 -2.31590009 0.30610001 106 98 122 50027.000000
-2.72169995 -2.31200004 0.30660000 180 177 198 50475.000000
-2.72189999 -2.31209993 0.30759999 235 237 252 50475.000000
-2.72119999 -2.31150007 0.30849999 235 237 252 50519.000000
-2.72119999 -2.31159997 0.30960000 237 244 252 50476.000000
-2.72090006 -2.31130004 0.31050000 238 248 249 50314.000000
-2.72070003 -2.31110001 0.31150001 238 248 249 50126.000000
-2.72049999 -2.31099987 0.31250000 237 247 246 50108.000000
-2.72000003 -2.31049991 0.31340000 240 248 250 50201.000000
-2.71959996 -2.31019998 0.31439999 240 248 250 50397.000000
-2.71850014 -2.30920005 0.31529999 242 247 250 50300.000000
-2.71840000 -2.30920005 0.31630000 242 247 250 50222.000000
-2.71880007 -2.30949998 0.31729999 242 247 250 50166.000000
-2.71860003 -2.30929995 0.31830001 242 247 250 50148.000000
-2.71749997 -2.30839992 0.31920001 242 247 250 50243.000000
-2.71880007 -2.30949998 0.32030001 242 247 250 50318.000000
-2.71729994 -2.30819988 0.32120001 242 247 250 50224.000000
-2.71840000 -2.30920005 0.32229999 242 247 250 50166.000000
-2.71829987 -2.30900002 0.32330000 242 247 250 50318.000000
-2.71869993 -2.30940008 0.32429999 242 247 250 50438.000000
-2.71759987 -2.30850005 0.32519999 243 248 251 50568.000000
-2.71640015 -2.30739999 0.32609999 243 248 251 50506.000000
-2.71770000 -2.30859995 0.32720000 243 248 251 50461.000000
-2.71630001 -2.30739999 0.32810000 242 247 250 50207.000000
-2.71650004 -2.30749989 0.32910001 242 247 250 50244.000000
-2.71640015 -2.30749989 0.33010000 242 247 250 50464.000000
-2.71530008 -2.30660009 0.33100000 242 247 250 50487.000000
-2.71580005 -2.30699992 0.33199999 242 247 250 50342.000000
-2.71580005 -2.30699992 0.33300000 242 247 250 50403.000000
-2.71569991 -2.30679989 0.33399999 241 246 249 50593.000000
-2.71560001 -2.30679989 0.33500001 241 246 249 50571.000000
-2.71440005 -2.30570006 0.33590001 242 247 250 50406.000000
-2.71549988 -2.30669999 0.33700001 243 247 246 50403.000000
-2.71510005 -2.30629992 0.33800000 243 247 246 50246.000000
-2.71449995 -2.30590010 0.33890000 243 247 246 50210.000000
-2.71510005 -2.30640006 0.34000000 243 247 246 50423.000000
-2.71479988 -2.30609989 0.34099999 243 247 246 50507.000000
-2.71499991 -2.30629992 0.34200001 243 247 248 50465.000000
-2.71390009 -2.30539989 0.34290001 243 247 248 50509.000000
-2.71479988 -2.30609989 0.34400001 243 247 248 50403.000000
-2.71280003 -2.30439997 0.34470001 243 247 246 50491.000000
-2.71300006 -2.30460000 0.34580001 243 247 246 50387.000000
-2.71309996 -2.30469990 0.34680000 243 247 246 50554.000000
-2.71269989 -2.30439997 0.34770000 243 247 248 50346.000000
-2.71269989 -2.30430007 0.34869999 244 248 249 50193.000000
-2.71309996 -2.30469990 0.34979999 242 246 249 50211.000000
-2.71160007 -2.30340004 0.35060000 246 250 253 50195.000000
-2.71239996 -2.30399990 0.35170001 247 252 255 50250.000000
-2.71250010 -2.30419993 0.35270000 247 252 255 50427.000000
-2.71090007 -2.30270004 0.35350001 235 240 244 50370.000000
-2.71210003 -2.30380011 0.35470000 237 242 245 49192.000000
-2.71160007 -2.30340004 0.35560000 237 242 245 41635.000000
-2.70970011 -2.30180001 0.35640001 244 248 255 32110.000000
-2.71000004 -2.30200005 0.35740000 230 234 243 21003.000000
-2.71029997 -2.30220008 0.35850000 230 234 243 12528.000000
-2.70889997 -2.30110002 0.35929999 209 212 227 6317.000000
-2.71180010 -2.30349994 0.36070001 193 199 225 5282.000000
-2.70849991 -2.30069995 0.36120000 134 138 165 9775.000000
-2.70830011 -2.30060005 0.36219999 101 104 137 16732.000000
-2.70840001 -2.30069995 0.36320001 98 102 131 24057.000000
-2.70959997 -2.30170012 0.36440000 98 102 131 35185.000000
-2.70919991 -2.30130005 0.36539999 140 144 169 43260.000000
-2.70930004 -2.30139995 0.36640000 191 196 216 50037.000000
-2.70830011 -2.30060005 0.36730000 191 196 216 50181.000000
-2.70900011 -2.30119991 0.36840001 226 232 246 50235.000000
-2.70790005 -2.30019999 0.36919999 238 245 255 50315.000000
-2.70770001 -2.29999995 0.37020001 238 245 255 50563.000000
-2.70790005 -2.30019999 0.37120000 233 241 244 50315.000000
-2.70700002 -2.29940009 0.37210000 239 244 247 50183.000000
-2.70749998 -2.29990005 0.37320000 239 244 247 50257.000000
-2.70749998 -2.29990005 0.37419999 239 245 245 50257.000000
-2.70599985 -2.29859996 0.37500000 237 243 241 50318.000000
-2.70630002 -2.29890013 0.37599999 237 243 241 50203.000000
-2.70569992 -2.29839993 0.37689999 238 242 241 50299.000000
-2.70569992 -2.29839993 0.37790000 240 244 245 50418.000000
-2.70580006 -2.29850006 0.37889999 240 244 245 50565.000000
-2.70639992 -2.29900002 0.38000000 243 247 248 50416.000000
-2.70490003 -2.29769993 0.38080001 242 246 247 50320.000000
-2.70469999 -2.29750013 0.38180000 242 246 247 50320.000000
-2.70550013 -2.29820013 0.38290000 238 244 244 50240.000000
-2.70499992 -2.29780006 0.38389999 242 247 250 50204.000000
-2.70429993 -2.29719996 0.38479999 242 247 250 50281.000000
-2.70340014 -2.29640007 0.38560000 242 247 250 50322.000000
-2.70410013 -2.29699993 0.38670000 242 247 250 50262.000000
-2.70289993 -2.29600000 0.38760000 242 247 250 50171.000000
-2.70350003 -2.29649997 0.38870001 242 247 250 50361.000000
-2.70309997 -2.29620004 0.38960001 242 247 250 50484.000000
-2.70370007 -2.29670000 0.39070001 242 247 250 50359.000000
-2.70400000 -2.29690003 0.39170000 242 247 250 50320.000000
-2.70249987 -2.29570007 0.39250001 242 247 250 50506.000000
-2.70270014 -2.29589987 0.39359999 242 247 250 50548.000000
-2.70090008 -2.29430008 0.39430001 242 247 250 50552.000000
-2.70169997 -2.29500008 0.39539999 243 248 251 50528.000000
-2.70300007 -2.29609990 0.39660001 243 248 251 50421.000000
-2.70200014 -2.29530001 0.39750001 243 248 251 50343.000000
-2.70140004 -2.29469991 0.39840001 243 248 251 50445.000000
-2.70149994 -2.29480004 0.39940000 243 248 251 50616.000000
-2.70029998 -2.29379988 0.40020001 243 248 251 50574.000000
-2.70109987 -2.29439998 0.40140000 243 248 251 50508.000000
-2.70079994 -2.29419994 0.40230000 243 248 251 50445.000000
-2.70079994 -2.29419994 0.40329999 243 248 251 50247.000000
-2.70070004 -2.29410005 0.40430000 243 248 251 50247.000000
-2.69980001 -2.29340005 0.40520000 243 248 251 50346.000000
-2.69969988 -2.29329991 0.40619999 243 248 251 50231.000000
-2.69950008 -2.29309988 0.40709999 239 248 247 50447.000000
-2.69840002 -2.29220009 0.40799999 239 248 247 50310.000000
-2.69939995 -2.29299998 0.40910000 237 246 245 50447.000000
-2.69939995 -2.29299998 0.41020000 241 249 251 50531.000000
-2.69989991 -2.29349995 0.41119999 242 250 253 50662.000000
-2.69910002 -2.29270005 0.41209999 242 250 253 50596.000000
-2.69939995 -2.29299998 0.41310000 242 247 253 50385.000000
-2.69899988 -2.29259992 0.41409999 245 250 255 44960.000000
-2.70389986 -2.29679990 0.41580001 245 250 255 29264.000000
-2.73399997 -2.32110000 0.30640000 106 98 122 41250.000000
-2.72359991 -2.31229997 0.30620000 180 177 198 50140.000000
-2.72259998 -2.31139994 0.30710000 180 177 198 50352.000000
-2.72280002 -2.31159997 0.30820000 235 237 252 50538.000000
-2.72259998 -2.31139994 0.30910000 237 244 252 50672.000000
-2.72189999 -2.31089997 0.31009999 237 244 252 50497.000000
-2.72029996 -2.30949998 0.31090000 238 248 249 50357.000000
-2.72119999 -2.31019998 0.31200001 237 247 246 50126.000000
-2.72140002 -2.31040001 0.31299999 237 247 246 50108.000000
-2.72039986 -2.30949998 0.31389999 240 248 250 50110.000000
-2.72049999 -2.30959988 0.31490001 242 247 250 50220.000000
-2.72079992 -2.30990005 0.31600001 242 247 250 50257.000000
-2.72029996 -2.30949998 0.31690001 242 247 250 50316.000000
-2.71899986 -2.30830002 0.31779999 242 247 250 50222.000000
-2.71950006 -2.30879998 0.31880000 242 247 250 50357.000000
-2.71939993 -2.30870008 0.31979999 242 247 250 50318.000000
-2.72020006 -2.30940008 0.32089999 242 247 250 50478.000000
-2.71930003 -2.30859995 0.32179999 242 247 250 50378.000000
-2.71810007 -2.30760002 0.32269999 242 247 250 50320.000000
-2.71850014 -2.30800009 0.32380000 242 247 250 50359.000000
-2.71969986 -2.30900002 0.32490000 242 247 250 50564.000000
-2.71729994 -2.30699992 0.32560000 243 248 251 50443.000000
-2.71749997 -2.30710006 0.32670000 243 248 251 50381.000000
-2.71720004 -2.30690002 0.32760000 243 248 251 50361.000000
-2.71939993 -2.30870008 0.32890001 242 247 250 50396.000000
-2.71749997 -2.30710006 0.32969999 242 247 250 50360.000000
-2.71619987 -2.30599999 0.33050001 242 247 250 50466.000000
-2.71710014 -2.30669999 0.33160001 242 247 250 50592.000000
-2.71720004 -2.30679989 0.33260000 242 247 250 50592.000000
-2.71679997 -2.30649996 0.33360001 242 247 250 50659.000000
-2.71630001 -2.30609989 0.33460000 241 246 249 50423.000000
-2.71499991 -2.30500007 0.33539999 241 247 247 50447.000000
-2.71560001 -2.30550003 0.33649999 241 247 247 50487.000000
-2.71510005 -2.30509996 0.33739999 243 247 246 50286.000000
-2.71549988 -2.30539989 0.33849999 243 247 246 50324.000000
-2.71549988 -2.30539989 0.33950001 243 247 246 50324.000000
-2.71530008 -2.30520010 0.34050000 243 247 246 50424.000000
-2.71329999 -2.30360007 0.34119999 243 247 248 50388.000000
-2.71420002 -2.30430007 0.34230000 243 247 248 50386.000000
-2.71519995 -2.30509996 0.34349999 243 247 248 50572.000000
-2.71460009 -2.30469990 0.34439999 243 247 250 50530.000000
-2.71379995 -2.30399990 0.34529999 243 247 250 50346.000000
-2.71420002 -2.30430007 0.34630001 243 247 250 50468.000000
-2.71460009 -2.30460000 0.34740001 243 247 250 50446.000000
-2.71390009 -2.30410004 0.34830001 243 247 250 50406.000000
-2.71339989 -2.30360007 0.34930000 242 246 249 50230.000000
-2.71239996 -2.30279994 0.35010001 248 252 255 50140.000000
-2.71259999 -2.30290008 0.35120001 248 252 255 50270.000000
-2.71300006 -2.30329990 0.35220000 247 252 255 50490.000000
-2.71269989 -2.30299997 0.35319999 240 245 248 50347.000000
-2.71169996 -2.30220008 0.35409999 240 245 248 50291.000000
-2.71149993 -2.30200005 0.35499999 237 242 245 48275.000000
-2.71180010 -2.30229998 0.35609999 239 244 247 42346.000000
-2.71079993 -2.30139995 0.35690001 239 244 247 34796.000000
-2.71079993 -2.30150008 0.35800001 236 241 244 23546.000000
-2.71029997 -2.30100012 0.35890001 228 235 245 15042.000000
-2.71020007 -2.30089998 0.35990000 228 235 245 10400.000000
-2.71050000 -2.30110002 0.36090001 193 199 225 14396.000000
-2.70930004 -2.30010009 0.36179999 152 158 190 21560.000000
-2.71029997 -2.30100012 0.36289999 152 158 190 29732.000000
-2.70989990 -2.30069995 0.36390001 152 159 187 39432.000000
-2.71009994 -2.30080009 0.36489999 194 200 222 47917.000000
-2.71020007 -2.30089998 0.36590001 194 200 222 50018.000000
-2.70950007 -2.30030012 0.36680001 223 230 246 50236.000000
-2.70889997 -2.29979992 0.36770001 232 241 248 50237.000000
-2.70799994 -2.29909992 0.36860001 232 241 248 50277.000000
-2.70819998 -2.29920006 0.36970001 237 247 248 50316.000000
-2.70819998 -2.29920006 0.37070000 238 247 244 50258.000000
-2.70749998 -2.29859996 0.37160000 238 247 244 50202.000000
-2.70760012 -2.29870009 0.37259999 242 249 242 50317.000000
-2.70830011 -2.29929996 0.37369999 242 249 242 50257.000000
-2.70910001 -2.29990005 0.37480000 242 249 242 50313.000000
-2.70760012 -2.29870009 0.37560001 242 247 241 50355.000000
-2.70830011 -2.29929996 0.37670001 242 247 243 50414.000000
-2.70840001 -2.29940009 0.37770000 242 247 243 50496.000000
-2.70740008 -2.29850006 0.37860000 243 247 246 50520.000000
-2.70630002 -2.29760003 0.37940001 242 246 247 50501.000000
-2.70620012 -2.29750013 0.38040000 242 246 247 50398.000000
-2.70599985 -2.29730010 0.38139999 240 244 247 50378.000000
-2.70630002 -2.29760003 0.38249999 238 241 246 50260.000000
-2.70459986 -2.29620004 0.38319999 238 241 246 50282.000000
-2.70569992 -2.29710007 0.38440001 242 247 250 50280.000000
-2.70599985 -2.29740000 0.38540000 242 247 250 50278.000000
-2.70449996 -2.29600000 0.38620001 242 247 250 50302.000000
-2.70499992 -2.29649997 0.38730001 242 247 250 50320.000000
-2.70529985 -2.29679990 0.38830000 242 247 250 50319.000000
-2.70379996 -2.29550004 0.38909999 242 247 250 50526.000000
-2.70469999 -2.29620004 0.39030001 242 247 250 50440.000000
-2.70410013 -2.29570007 0.39120001 242 247 250 50547.000000
-2.70319986 -2.29500008 0.39210001 242 247 250 50570.000000
-2.70350003 -2.29519987 0.39309999 242 247 250 50381.000000
-2.70389986 -2.29559994 0.39420000 242 247 250 50340.000000
-2.70270014 -2.29449987 0.39500001 242 247 250 50465.000000
-2.70350003 -2.29519987 0.39610001 243 248 251 50463.000000
-2.70260000 -2.29439998 0.39700001 243 248 251 50403.000000
-2.70200014 -2.29390001 0.39789999 243 248 251 50324.000000
-2.70190001 -2.29379988 0.39890000 243 248 251 50305.000000
-2.70280004 -2.29460001 0.40000001 243 248 251 50382.000000
-2.70179987 -2.29369998 0.40090001 243 248 251 50594.000000
-2.70130014 -2.29329991 0.40180001 243 248 251 50425.000000
-2.70140004 -2.29349995 0.40279999 243 248 251 50344.000000
-2.70200014 -2.29390001 0.40390000 243 248 251 50323.000000
-2.70099998 -2.29309988 0.40480000 243 248 251 50365.000000
-2.70099998 -2.29309988 0.40580001 243 248 251 50466.000000
-2.70090008 -2.29299998 0.40680000 239 248 247 50345.000000
-2.69980001 -2.29209995 0.40759999 239 248 247 50407.000000
-2.70070004 -2.29279995 0.40869999 238 247 246 50425.000000
-2.70039988 -2.29259992 0.40970001 241 249 251 50708.000000
-2.69939995 -2.29169989 0.41060001 241 249 251 50642.000000
-2.69969988 -2.29200006 0.41159999 242 250 252 50510.000000
-2.69910002 -2.29150009 0.41249999 242 247 251 50328.000000
-2.69910002 -2.29150009 0.41350001 242 247 251 49810.000000
-2.70239997 -2.29419994 0.41499999 244 249 255 38282.000000
-2.71479988 -2.30480003 0.41790000 244 247 255 20839.000000
-2.75329995 -2.33610010 0.30800000 102 97 120 33100.000000
-2.72740006 -2.31419992 0.30610001 102 97 120 46889.000000
-2.72359991 -2.31099987 0.30669999 179 177 198 50311.000000
-2.72329998 -2.31069994 0.30759999 236 240 252 50539.000000
-2.72309995 -2.31060004 0.30860001 236 240 252 50649.000000
-2.72289991 -2.31040001 0.30960000 238 245 253 50434.000000
-2.72230005 -2.30990005 0.31050000 238 248 249 50354.000000
-2.72230005 -2.30990005 0.31150001 238 248 249 50314.000000
-2.72280002 -2.31029987 0.31259999 237 247 246 50372.000000
-2.72250009 -2.30999994 0.31360000 240 248 250 50198.000000
-2.72130013 -2.30900002 0.31439999 240 248 250 50219.000000
-2.72099996 -2.30870008 0.31540000 242 247 250 50479.000000
-2.72169995 -2.30929995 0.31650001 242 247 250 50519.000000
-2.72020006 -2.30800009 0.31729999 242 247 250 50398.000000
-2.72079992 -2.30859995 0.31840000 242 247 250 50396.000000
-2.72070003 -2.30839992 0.31940001 242 247 250 50336.000000
-2.72020006 -2.30809999 0.32030001 242 247 250 50357.000000
-2.71950006 -2.30749989 0.32130000 242 247 250 50167.000000
-2.71889997 -2.30690002 0.32220000 242 247 250 50281.000000
-2.71950006 -2.30739999 0.32330000 242 247 250 50222.000000
-2.71920013 -2.30719995 0.32429999 242 247 250 50379.000000
-2.71910000 -2.30710006 0.32519999 243 248 251 50546.000000
-2.71860003 -2.30669999 0.32620001 243 248 251 50360.000000
-2.71899986 -2.30699992 0.32720000 243 248 251 50399.000000
-2.71930003 -2.30730009 0.32830000 243 248 251 50545.000000
-2.71899986 -2.30699992 0.32920000 243 248 251 50482.000000
-2.71959996 -2.30749989 0.33030000 242 247 250 50565.000000
-2.71819997 -2.30629992 0.33120000 242 247 250 50526.000000
-2.71729994 -2.30559993 0.33210000 242 247 250 50506.000000
-2.71740007 -2.30570006 0.33309999 241 246 249 50527.000000
-2.71749997 -2.30579996 0.33410001 241 246 249 50505.000000
-2.71810007 -2.30629992 0.33520001 241 246 249 50504.000000
-2.71729994 -2.30559993 0.33610001 241 247 247 50527.000000
-2.71700001 -2.30530000 0.33710000 243 247 246 50485.000000
-2.71569991 -2.30419993 0.33790001 243 247 246 50446.000000
-2.71510005 -2.30369997 0.33880001 245 247 246 50307.000000
-2.71530008 -2.30390000 0.33989999 245 247 246 50325.000000
-2.71619987 -2.30469990 0.34099999 245 247 246 50383.000000
-2.71560001 -2.30419993 0.34189999 245 246 248 50285.000000
-2.71490002 -2.30360007 0.34279999 243 247 250 50386.000000
-2.71600008 -2.30450010 0.34400001 243 247 250 50423.000000
-2.71429992 -2.30299997 0.34480000 243 246 251 50387.000000
-2.71429992 -2.30310011 0.34580001 243 246 251 50448.000000
-2.71399999 -2.30279994 0.34670001 243 246 251 50407.000000
-2.71409988 -2.30290008 0.34779999 243 246 251 50490.000000
-2.71399999 -2.30279994 0.34869999 241 244 249 50511.000000
-2.71359992 -2.30250001 0.34970000 241 244 249 50388.000000
-2.71429992 -2.30299997 0.35080001 243 246 251 50366.000000
-2.71399999 -2.30279994 0.35170001 244 249 252 50427.000000
-2.71329999 -2.30220008 0.35270000 244 249 252 50470.000000
-2.71269989 -2.30170012 0.35360000 244 249 252 50389.000000
-2.71199989 -2.30110002 0.35450000 241 247 247 50234.000000
-2.71180010 -2.30089998 0.35550001 241 247 247 50053.000000
-2.71250010 -2.30150008 0.35659999 237 243 241 45446.000000
-2.71210003 -2.30119991 0.35749999 236 242 238 37967.000000
-2.71269989 -2.30170012 0.35859999 236 242 238 29635.000000
-2.71190000 -2.30100012 0.35949999 234 241 247 20150.000000
-2.71149993 -2.30069995 0.36050001 229 236 255 18503.000000
-2.71140003 -2.30060005 0.36149999 229 236 255 26725.000000
-2.70889997 -2.29850006 0.36210001 194 203 234 36464.000000
-2.71040010 -2.29970002 0.36330000 197 207 234 44828.000000
-2.71140003 -2.30060005 0.36449999 197 207 234 50105.000000
-2.71040010 -2.29970002 0.36530000 228 236 255 50143.000000
-2.71140003 -2.30060005 0.36649999 234 244 254 50215.000000
-2.70959997 -2.29900002 0.36719999 234 244 254 50275.000000
-2.70989990 -2.29929996 0.36829999 231 241 243 50314.000000
-2.70959997 -2.29900002 0.36919999 235 246 240 50256.000000
-2.70889997 -2.29850006 0.37020001 235 246 240 50201.000000
-2.70930004 -2.29879999 0.37120000 237 247 238 50256.000000
-2.70900011 -2.29859996 0.37220001 243 251 238 50295.000000
-2.71009994 -2.29949999 0.37329999 243 251 238 50391.000000
-2.70799994 -2.29769993 0.37410000 242 250 237 50521.000000
-2.70869994 -2.29830003 0.37520000 244 250 240 50562.000000
-2.70799994 -2.29769993 0.37610000 244 250 240 50457.000000
-2.70840001 -2.29800010 0.37709999 244 249 243 50435.000000
-2.70830011 -2.29800010 0.37810001 245 247 246 50435.000000
-2.70599985 -2.29600000 0.37880000 245 247 246 50380.000000
-2.70749998 -2.29730010 0.38000000 244 243 248 50437.000000
-2.70700002 -2.29690003 0.38090000 244 243 249 50337.000000
-2.70700002 -2.29690003 0.38190001 244 243 249 50298.000000
-2.70560002 -2.29570007 0.38280001 244 244 252 50421.000000
-2.70720005 -2.29699993 0.38400000 243 246 251 50297.000000
-2.70560002 -2.29570007 0.38479999 243 246 251 50301.000000
-2.70639992 -2.29629993 0.38589999 242 247 250 50299.000000
-2.70550013 -2.29559994 0.38670000 242 247 250 50300.000000
-2.70560002 -2.29570007 0.38780001 242 247 250 50379.000000
-2.70569992 -2.29570007 0.38880000 242 247 250 50399.000000
-2.70560002 -2.29570007 0.38980001 242 247 250 50300.000000
-2.70480013 -2.29500008 0.39070001 242 247 250 50462.000000
-2.70449996 -2.29469991 0.39160001 242 247 250 50484.000000
-2.70459986 -2.29480004 0.39260000 242 247 250 50441.000000
-2.70449996 -2.29469991 0.39359999 242 247 250 50243.000000
-2.70330000 -2.29379988 0.39449999 242 247 250 50465.000000
-2.70459986 -2.29480004 0.39570001 243 248 251 50568.000000
-2.70420003 -2.29439998 0.39660001 243 248 251 50504.000000
-2.70469999 -2.29489994 0.39770001 243 248 251 50524.000000
-2.70379996 -2.29410005 0.39860001 243 248 251 50613.000000
-2.70270014 -2.29320002 0.39940000 243 248 251 50550.000000
-2.70330000 -2.29369998 0.40050000 243 248 251 50681.000000
-2.70270014 -2.29329991 0.40140000 243 248 251 50507.000000
-2.70300007 -2.29340005 0.40250000 243 248 251 50527.000000
-2.70169997 -2.29239988 0.40329999 243 248 251 50509.000000
