//X Y Z R G B Intensity
12.41874981 -9.34949970 -0.23025000 231 230 246 26614.000000
12.41825008 -9.34924984 -0.22925000 231 230 246 26507.000000
12.41724968 -9.34850025 -0.22825000 231 230 246 26503.000000
12.41699982 -9.34825039 -0.22724999 231 230 246 27164.000000
12.41650009 -9.34799957 -0.22624999 231 230 246 27160.000000
12.41650009 -9.34799957 -0.22525001 231 230 246 27857.000000
12.41524982 -9.34700012 -0.22425000 231 230 246 27385.000000
12.41475010 -9.34675026 -0.22325000 227 230 239 26714.000000
12.41625023 -9.34774971 -0.22225000 227 230 239 26825.000000
12.41275024 -9.34525013 -0.22125000 227 230 239 26817.000000
12.41250038 -9.34500027 -0.22025000 227 230 239 27964.000000
12.41575050 -9.34724998 -0.21924999 227 230 239 28582.000000
12.41549969 -9.34724998 -0.21825001 227 230 239 27617.000000
12.41424942 -9.34625053 -0.21725000 230 238 241 27267.000000
12.41324997 -9.34549999 -0.21625000 230 238 241 27039.000000
12.41324997 -9.34549999 -0.21525000 230 238 241 26710.000000
12.41174984 -9.34449959 -0.21400000 230 238 241 26814.000000
12.41225052 -9.34475040 -0.21300000 230 238 241 26489.000000
12.41225052 -9.34475040 -0.21200000 230 238 241 24596.000000
12.41024971 -9.34325027 -0.21100000 230 238 241 19642.000000
12.41125011 -9.34399986 -0.21025001 224 234 233 12435.000000
12.41125011 -9.34399986 -0.20925000 224 234 233 6353.000000
12.40875053 -9.34200001 -0.20800000 224 234 233 3217.000000
12.40400028 -9.33850002 -0.20700000 224 234 233 1367.000000
12.41650009 -9.34924984 -0.34750000 141 150 149 4371.000000
12.41499996 -9.34799957 -0.34650001 134 144 145 6932.000000
12.41724968 -9.34975052 -0.34549999 134 144 145 8796.000000
12.41774940 -9.35025024 -0.34450001 134 144 145 9500.000000
12.41774940 -9.35025024 -0.34349999 134 144 145 9742.000000
12.41674995 -9.34949970 -0.34250000 134 144 145 10146.000000
12.41774940 -9.35000038 -0.34150001 134 144 145 10560.000000
12.41774940 -9.35000038 -0.34050000 115 127 127 10475.000000
12.41575050 -9.34875011 -0.33950001 115 127 127 10732.000000
12.41674995 -9.34924984 -0.33849999 115 127 127 11132.000000
12.41674995 -9.34924984 -0.33750001 115 127 127 10389.000000
12.41650009 -9.34924984 -0.33649999 115 127 127 9785.000000
12.41699982 -9.34949970 -0.33550000 115 127 127 9364.000000
12.41625023 -9.34899998 -0.33450001 115 127 127 10132.000000
12.41674995 -9.34949970 -0.33350000 109 121 119 11075.000000
12.41575050 -9.34850025 -0.33250001 109 121 119 10750.000000
12.41424942 -9.34749985 -0.33149999 109 121 119 10907.000000
12.41674995 -9.34924984 -0.33050001 109 121 119 10767.000000
12.41600037 -9.34875011 -0.32949999 109 121 119 9600.000000
12.41549969 -9.34825039 -0.32850000 109 121 119 8667.000000
12.41549969 -9.34850025 -0.32749999 135 150 147 9457.000000
12.41600037 -9.34875011 -0.32650000 135 150 147 10657.000000
12.41575050 -9.34850025 -0.32550001 135 150 147 11282.000000
12.41650009 -9.34924984 -0.32449999 135 150 147 11460.000000
12.41549969 -9.34850025 -0.32350001 135 150 147 12164.000000
12.41499996 -9.34799957 -0.32249999 135 150 147 12564.000000
12.41674995 -9.34924984 -0.32150000 135 150 147 12303.000000
12.41650009 -9.34899998 -0.32049999 130 146 143 11017.000000
12.41699982 -9.34949970 -0.31950000 130 146 143 8303.000000
12.41849995 -9.35050011 -0.31850001 130 146 143 5010.000000
12.42199993 -9.35325050 -0.31775001 130 146 143 2760.000000
12.41899967 -9.35099983 -0.31650001 130 146 143 1407.000000
12.43200016 -9.36075020 -0.31600001 130 146 143 1053.000000
12.43824959 -9.36575031 -0.31500000 105 121 120 1464.000000
12.44474983 -9.37049961 -0.31424999 105 121 120 3167.000000
12.44499969 -9.37075043 -0.31325001 105 121 120 7346.000000
12.44499969 -9.37075043 -0.31224999 105 121 120 13732.000000
12.44674969 -9.37199974 -0.31125000 105 121 120 18442.000000
12.44649982 -9.37174988 -0.31025001 105 121 120 20775.000000
12.44649982 -9.37174988 -0.30925000 134 148 149 22714.000000
12.44474983 -9.37049961 -0.30825001 134 148 149 23696.000000
12.44524956 -9.37100029 -0.30724999 134 148 149 24864.000000
12.44449997 -9.37024975 -0.30625001 134 148 149 25942.000000
12.44524956 -9.37100029 -0.30524999 134 148 149 26467.000000
12.44449997 -9.37024975 -0.30425000 134 148 149 26360.000000
12.44324970 -9.36950016 -0.30325001 134 148 149 25639.000000
12.44324970 -9.36950016 -0.30225000 207 218 222 25939.000000
12.44250011 -9.36874962 -0.30125001 207 218 222 25935.000000
12.44375038 -9.36975002 -0.30024999 207 218 222 26357.000000
12.44050026 -9.36725044 -0.29925001 207 218 222 26889.000000
12.44124985 -9.36775017 -0.29824999 207 218 222 27453.000000
12.44225025 -9.36849976 -0.29725000 207 218 222 27117.000000
12.44174957 -9.36824989 -0.29624999 218 227 236 27003.000000
12.44099998 -9.36750031 -0.29525000 218 227 236 27800.000000
12.44075012 -9.36750031 -0.29425001 218 227 236 26453.000000
12.43974972 -9.36674976 -0.29300001 218 227 236 25928.000000
12.43900013 -9.36600018 -0.29200000 218 227 236 25039.000000
12.43924999 -9.36625004 -0.29100001 218 227 236 24850.000000
12.43875027 -9.36600018 -0.28999999 218 227 236 25628.000000
12.43725014 -9.36499977 -0.28900000 229 233 245 25824.000000
12.43750000 -9.36499977 -0.28799999 229 233 245 26132.000000
12.43824959 -9.36549950 -0.28700000 229 233 245 25924.000000
12.43725014 -9.36474991 -0.28600001 229 233 245 25724.000000
12.43700027 -9.36450005 -0.28500000 229 233 245 25621.000000
12.43650055 -9.36425018 -0.28400001 229 233 245 25721.000000
12.43700027 -9.36474991 -0.28299999 231 230 248 25824.000000
12.43575001 -9.36375046 -0.28200001 231 230 248 25621.000000
12.43675041 -9.36450005 -0.28099999 231 230 248 26132.000000
12.43650055 -9.36425018 -0.28000000 231 230 248 25821.000000
12.43575001 -9.36349964 -0.27900001 231 230 248 26024.000000
12.43525028 -9.36324978 -0.27800000 231 230 248 25817.000000
12.43525028 -9.36324978 -0.27700001 231 230 248 23760.000000
12.43650055 -9.36425018 -0.27599999 208 203 226 18167.000000
12.43550014 -9.36349964 -0.27500001 208 203 226 11382.000000
12.43449974 -9.36275005 -0.27399999 208 203 226 6542.000000
12.43124962 -9.36025047 -0.27300000 208 203 226 4100.000000
12.43474960 -9.36299992 -0.27200001 208 203 226 2542.000000
12.43375015 -9.36225033 -0.27100000 208 203 226 1660.000000
12.43000031 -9.35949993 -0.26975000 160 151 180 1403.000000
12.43424988 -9.36250019 -0.26899999 160 151 180 1260.000000
12.42650032 -9.35675049 -0.26774999 160 151 180 1135.000000
12.42475033 -9.35550022 -0.26675001 160 151 180 1021.000000
12.41925049 -9.35124969 -0.26550001 160 151 180 964.000000
12.42525005 -9.35575008 -0.26475000 160 151 180 967.000000
12.43074989 -9.35974979 -0.26374999 160 151 180 903.000000
12.43050003 -9.35974979 -0.26275000 117 103 136 925.000000
12.43274975 -9.36124992 -0.26199999 117 103 136 1000.000000
12.43274975 -9.36149979 -0.26100001 117 103 136 960.000000
12.43099976 -9.35999966 -0.25975001 117 103 136 914.000000
12.42150021 -9.35299969 -0.25850001 117 103 136 917.000000
12.41975021 -9.35149956 -0.25749999 117 103 136 1035.000000
12.42799950 -9.35774994 -0.25674999 98 85 115 1021.000000
12.42700005 -9.35700035 -0.25575000 98 85 115 1092.000000
12.42825031 -9.35799980 -0.25475001 98 85 115 1321.000000
12.42449951 -9.35525036 -0.25375000 98 85 115 1467.000000
12.42650032 -9.35675049 -0.25275001 98 85 115 1953.000000
12.42275047 -9.35400009 -0.25174999 98 85 115 2828.000000
12.42399979 -9.35474968 -0.25075001 98 85 115 4496.000000
12.42500019 -9.35550022 -0.24975000 106 96 123 6867.000000
12.42325020 -9.35424995 -0.24875000 106 96 123 10739.000000
12.42350006 -9.35449982 -0.24775000 106 96 123 15410.000000
12.42399979 -9.35474968 -0.24675000 106 96 123 19971.000000
12.42275047 -9.35400009 -0.24575000 106 96 123 23392.000000
12.42350006 -9.35424995 -0.24474999 106 96 123 24442.000000
12.42150021 -9.35299969 -0.24375001 156 148 171 25189.000000
12.42224979 -9.35350037 -0.24275000 156 148 171 25000.000000
12.42224979 -9.35350037 -0.24175000 156 148 171 24621.000000
12.42199993 -9.35325050 -0.24075000 156 148 171 25485.000000
12.42099953 -9.35249996 -0.23975000 156 148 171 25685.000000
12.42000008 -9.35175037 -0.23875000 156 148 171 25782.000000
12.42125034 -9.35274982 -0.23774999 156 148 171 26092.000000
12.42000008 -9.35175037 -0.23675001 204 199 219 25682.000000
12.42024994 -9.35200024 -0.23575000 204 199 219 25282.000000
12.41925049 -9.35124969 -0.23475000 204 199 219 24803.000000
12.41724968 -9.34975052 -0.23350000 204 199 219 25874.000000
12.41825008 -9.35050011 -0.23275000 204 199 219 26725.000000
12.41950035 -9.35149956 -0.23175000 204 199 219 27057.000000
12.41774940 -9.35000038 -0.23074999 231 230 246 26189.000000
12.41749954 -9.35000038 -0.22975001 231 230 246 26721.000000
12.41724968 -9.34975052 -0.22875001 231 230 246 26939.000000
12.41699982 -9.34949970 -0.22775000 231 230 246 26939.000000
12.41575050 -9.34850025 -0.22650000 231 230 246 27735.000000
12.41674995 -9.34924984 -0.22550000 231 230 246 27275.000000
12.41575050 -9.34850025 -0.22450000 231 230 246 27503.000000
12.41650009 -9.34899998 -0.22350000 227 230 239 26717.000000
12.41399956 -9.34724998 -0.22250000 227 230 239 26821.000000
12.41524982 -9.34825039 -0.22149999 227 230 239 26182.000000
12.41399956 -9.34724998 -0.22050001 227 230 239 27728.000000
12.41450024 -9.34774971 -0.21950001 227 230 239 27732.000000
12.41399956 -9.34724998 -0.21850000 227 230 239 27042.000000
12.41349983 -9.34700012 -0.21750000 230 238 241 26928.000000
12.41300011 -9.34650040 -0.21650000 230 238 241 26282.000000
12.41174984 -9.34574986 -0.21550000 230 238 241 25964.000000
12.41250038 -9.34599972 -0.21450000 230 238 241 26385.000000
12.41250038 -9.34625053 -0.21349999 230 238 241 26278.000000
12.41100025 -9.34500027 -0.21250001 230 238 241 24503.000000
12.41149998 -9.34549999 -0.21150000 230 238 241 19132.000000
12.40999985 -9.34424973 -0.21050000 224 234 233 12000.000000
12.40925026 -9.34375000 -0.20950000 224 234 233 5832.000000
12.41049957 -9.34449959 -0.20850000 224 234 233 2871.000000
12.40849972 -9.34325027 -0.20750000 224 234 233 1360.000000
12.41800022 -9.35149956 -0.34825000 141 150 149 2307.000000
12.41874981 -9.35225010 -0.34725001 134 144 145 3785.000000
12.41600037 -9.35000038 -0.34599999 134 144 145 5039.000000
12.41524982 -9.34949970 -0.34500000 134 144 145 6035.000000
12.41800022 -9.35149956 -0.34424999 134 144 145 6310.000000
12.41600037 -9.35000038 -0.34299999 134 144 145 6635.000000
12.41575050 -9.34975052 -0.34224999 134 144 145 6839.000000
12.41749954 -9.35124969 -0.34125000 134 144 145 6746.000000
12.41724968 -9.35099983 -0.34024999 115 127 127 6825.000000
12.41674995 -9.35050011 -0.33925000 115 127 127 7478.000000
12.41699982 -9.35074997 -0.33825001 115 127 127 7264.000000
12.41575050 -9.34975052 -0.33700001 115 127 127 6517.000000
12.41625023 -9.35025024 -0.33600000 115 127 127 6142.000000
12.41575050 -9.35000038 -0.33500001 115 127 127 6132.000000
12.41424942 -9.34875011 -0.33399999 109 121 119 6753.000000
12.41524982 -9.34949970 -0.33300000 109 121 119 6928.000000
12.41625023 -9.35025024 -0.33199999 109 121 119 6632.000000
12.41600037 -9.35000038 -0.33100000 109 121 119 6839.000000
12.41749954 -9.35124969 -0.33024999 109 121 119 6392.000000
12.41424942 -9.34875011 -0.32900000 109 121 119 5821.000000
12.41650009 -9.35050011 -0.32824999 109 121 119 6575.000000
12.41374969 -9.34850025 -0.32699999 135 150 147 7671.000000
12.41549969 -9.34975052 -0.32600001 135 150 147 9028.000000
12.41524982 -9.34949970 -0.32499999 135 150 147 10489.000000
12.41575050 -9.35000038 -0.32400000 135 150 147 11585.000000
12.41600037 -9.35000038 -0.32300001 135 150 147 12471.000000
12.41575050 -9.35000038 -0.32200000 135 150 147 12164.000000
12.41600037 -9.35025024 -0.32100001 130 146 143 11464.000000
12.41549969 -9.34975052 -0.31999999 130 146 143 10007.000000
12.41650009 -9.35050011 -0.31900001 130 146 143 7214.000000
12.41699982 -9.35074997 -0.31825000 130 146 143 4235.000000
12.41849995 -9.35200024 -0.31725001 130 146 143 2453.000000
12.42525005 -9.35700035 -0.31625000 130 146 143 1482.000000
12.42799950 -9.35900021 -0.31549999 130 146 143 1089.000000
12.43799973 -9.36674976 -0.31474999 105 121 120 1439.000000
12.44449997 -9.37150002 -0.31375000 105 121 120 3164.000000
12.44524956 -9.37224960 -0.31275001 105 121 120 6907.000000
12.44400024 -9.37125015 -0.31174999 105 121 120 13178.000000
12.44649982 -9.37300014 -0.31099999 105 121 120 18339.000000
12.44375038 -9.37100029 -0.30974999 105 121 120 21592.000000
12.44474983 -9.37174988 -0.30875000 134 148 149 22635.000000
12.44350052 -9.37100029 -0.30774999 134 148 149 24128.000000
12.44449997 -9.37150002 -0.30675000 134 148 149 24771.000000
12.44375038 -9.37125015 -0.30575001 134 148 149 25542.000000
12.44274998 -9.37024975 -0.30475000 134 148 149 25639.000000
12.44250011 -9.37024975 -0.30375001 134 148 149 25339.000000
12.44375038 -9.37100029 -0.30274999 207 218 222 25246.000000
12.44149971 -9.36950016 -0.30175000 207 218 222 25050.000000
12.44225025 -9.36999989 -0.30074999 207 218 222 25739.000000
12.44225025 -9.36999989 -0.29975000 207 218 222 26460.000000
12.44225025 -9.36999989 -0.29875001 207 218 222 27928.000000
12.44000053 -9.36824989 -0.29775000 207 218 222 27800.000000
12.43949986 -9.36800003 -0.29675001 207 218 222 27450.000000
12.44025040 -9.36824989 -0.29574999 218 227 236 28285.000000
12.43974972 -9.36800003 -0.29475001 218 227 236 27800.000000
12.44124985 -9.36899948 -0.29374999 218 227 236 26892.000000
12.43750000 -9.36625004 -0.29275000 218 227 236 25824.000000
12.43924999 -9.36775017 -0.29175001 218 227 236 25235.000000
12.43900013 -9.36750031 -0.29075000 218 227 236 25628.000000
12.43875027 -9.36725044 -0.28975001 218 227 236 26560.000000
12.43924999 -9.36750031 -0.28874999 229 233 245 26778.000000
12.43700027 -9.36600018 -0.28775001 229 233 245 26882.000000
12.43675041 -9.36575031 -0.28674999 229 233 245 26664.000000
12.43750000 -9.36625004 -0.28575000 229 233 245 25624.000000
12.43675041 -9.36575031 -0.28450000 229 233 245 25324.000000
12.43650055 -9.36549950 -0.28349999 229 233 245 25035.000000
12.43599987 -9.36499977 -0.28250000 231 230 248 24939.000000
12.43624973 -9.36524963 -0.28150001 231 230 248 25621.000000
12.43624973 -9.36549950 -0.28049999 231 230 248 25721.000000
12.43474960 -9.36425018 -0.27950001 231 230 248 25128.000000
12.43499947 -9.36450005 -0.27849999 231 230 248 23175.000000
12.43550014 -9.36474991 -0.27750000 231 230 248 19064.000000
12.43400002 -9.36349964 -0.27649999 208 203 226 12757.000000
12.43350029 -9.36324978 -0.27550000 208 203 226 7596.000000
12.43400002 -9.36349964 -0.27450001 208 203 226 4707.000000
12.43300056 -9.36299992 -0.27350000 208 203 226 3042.000000
12.43400002 -9.36375046 -0.27274999 208 203 226 1903.000000
12.43124962 -9.36149979 -0.27149999 208 203 226 1417.000000
12.43400002 -9.36375046 -0.27050000 208 203 226 1278.000000
12.43274975 -9.36275005 -0.26949999 160 151 180 1178.000000
12.42799950 -9.35925007 -0.26850000 160 151 180 1064.000000
12.42774963 -9.35900021 -0.26750001 160 151 180 1032.000000
12.43575001 -9.36499977 -0.26650000 160 151 180 989.000000
12.43474960 -9.36400032 -0.26550001 160 151 180 950.000000
12.42825031 -9.35925007 -0.26449999 160 151 180 932.000000
12.42600060 -9.35774994 -0.26350001 160 151 180 953.000000
12.42224979 -9.35474968 -0.26225001 117 103 136 928.000000
12.43474960 -9.36425018 -0.26150000 117 103 136 892.000000
12.42449951 -9.35649967 -0.26050001 117 103 136 907.000000
12.43124962 -9.36149979 -0.25950000 117 103 136 932.000000
12.42574978 -9.35750008 -0.25850001 117 103 136 867.000000
12.42875004 -9.35949993 -0.25749999 117 103 136 907.000000
12.42724991 -9.35849953 -0.25650001 98 85 115 960.000000
12.42300034 -9.35525036 -0.25525001 98 85 115 1067.000000
12.42049980 -9.35350037 -0.25424999 98 85 115 1128.000000
12.42574978 -9.35725021 -0.25350001 98 85 115 1382.000000
12.42000008 -9.35299969 -0.25224999 98 85 115 1735.000000
12.42249966 -9.35499954 -0.25125000 98 85 115 2507.000000
12.42350006 -9.35575008 -0.25025001 98 85 115 3932.000000
12.42249966 -9.35499954 -0.24924999 106 96 123 5975.000000
12.42350006 -9.35550022 -0.24824999 106 96 123 9503.000000
12.42449951 -9.35649967 -0.24725001 106 96 123 14685.000000
12.42374992 -9.35599995 -0.24625000 106 96 123 19325.000000
12.42300034 -9.35525036 -0.24525000 106 96 123 23064.000000
12.42249966 -9.35499954 -0.24425000 106 96 123 24171.000000
12.42175007 -9.35424995 -0.24325000 156 148 171 24257.000000
12.42074966 -9.35350037 -0.24225000 156 148 171 24253.000000
12.42000008 -9.35299969 -0.24124999 156 148 171 25282.000000
12.42049980 -9.35325050 -0.24025001 156 148 171 26514.000000
12.42099953 -9.35375023 -0.23925000 156 148 171 26514.000000
12.41950035 -9.35274982 -0.23825000 156 148 171 26510.000000
12.41874981 -9.35225010 -0.23725000 156 148 171 27057.000000
12.41825008 -9.35175037 -0.23625000 204 199 219 26617.000000
12.41950035 -9.35274982 -0.23525000 204 199 219 25482.000000
12.41849995 -9.35200024 -0.23424999 204 199 219 25278.000000
12.41874981 -9.35225010 -0.23325001 204 199 219 26089.000000
12.41774940 -9.35149956 -0.23225001 204 199 219 26942.000000
12.41925049 -9.35249996 -0.23125000 204 199 219 26946.000000
12.41800022 -9.35149956 -0.23025000 231 230 246 27167.000000
12.41674995 -9.35074997 -0.22925000 231 230 246 27507.000000
12.41749954 -9.35124969 -0.22825000 231 230 246 27510.000000
12.41499996 -9.34924984 -0.22724999 231 230 246 27621.000000
12.41499996 -9.34924984 -0.22624999 231 230 246 27046.000000
12.41424942 -9.34875011 -0.22525001 231 230 246 26607.000000
12.41399956 -9.34850025 -0.22425000 231 230 246 25767.000000
12.41499996 -9.34924984 -0.22325000 227 230 239 26289.000000
12.41225052 -9.34724998 -0.22200000 227 230 239 26492.000000
12.41549969 -9.34975052 -0.22125000 227 230 239 26935.000000
12.41349983 -9.34825039 -0.22025000 227 230 239 26932.000000
12.41374969 -9.34850025 -0.21924999 227 230 239 27042.000000
12.41250038 -9.34749985 -0.21825001 227 230 239 26603.000000
12.41349983 -9.34825039 -0.21725000 230 238 241 26603.000000
12.41174984 -9.34700012 -0.21625000 230 238 241 25967.000000
12.41074944 -9.34625053 -0.21525000 230 238 241 25964.000000
12.41174984 -9.34675026 -0.21425000 230 238 241 26925.000000
12.41049957 -9.34599972 -0.21325000 230 238 241 25860.000000
12.41125011 -9.34650040 -0.21224999 230 238 241 22800.000000
12.41024971 -9.34574986 -0.21100000 230 238 241 16275.000000
12.40974998 -9.34549999 -0.20999999 224 234 233 8935.000000
12.40550041 -9.34224987 -0.20900001 224 234 233 4246.000000
12.41125011 -9.34650040 -0.20800000 224 234 233 2053.000000
12.40875053 -9.34449959 -0.20700000 224 234 233 892.000000
12.41849995 -9.35299969 -0.34750000 141 150 149 1617.000000
12.41575050 -9.35124969 -0.34650001 134 144 145 2153.000000
12.41575050 -9.35099983 -0.34549999 134 144 145 2642.000000
12.41424942 -9.35000038 -0.34450001 134 144 145 2896.000000
12.41774940 -9.35249996 -0.34349999 134 144 145 2996.000000
12.41724968 -9.35225010 -0.34250000 134 144 145 2978.000000
12.41450024 -9.35025024 -0.34150001 134 144 145 3114.000000
12.41424942 -9.35000038 -0.34050000 115 127 127 3235.000000
12.41625023 -9.35149956 -0.33950001 115 127 127 3460.000000
12.41575050 -9.35099983 -0.33849999 115 127 127 3285.000000
12.41724968 -9.35225010 -0.33750001 115 127 127 3064.000000
12.41625023 -9.35149956 -0.33649999 115 127 127 2982.000000
12.41225052 -9.34850025 -0.33550000 115 127 127 3028.000000
12.41724968 -9.35225010 -0.33450001 115 127 127 3314.000000
12.41450024 -9.35000038 -0.33350000 109 121 119 3378.000000
12.41524982 -9.35074997 -0.33250001 109 121 119 3314.000000
12.41450024 -9.35025024 -0.33149999 109 121 119 3153.000000
12.41524982 -9.35074997 -0.33050001 109 121 119 2964.000000
12.41199970 -9.34825039 -0.32949999 109 121 119 3032.000000
12.41524982 -9.35074997 -0.32850000 109 121 119 3514.000000
12.41524982 -9.35074997 -0.32749999 135 150 147 4017.000000
12.41399956 -9.34975052 -0.32650000 135 150 147 5560.000000
12.41349983 -9.34949970 -0.32550001 135 150 147 7496.000000
12.41549969 -9.35099983 -0.32449999 135 150 147 9567.000000
12.41499996 -9.35050011 -0.32350001 135 150 147 10892.000000
12.41524982 -9.35074997 -0.32249999 135 150 147 11421.000000
12.41475010 -9.35050011 -0.32150000 135 150 147 11321.000000
12.41524982 -9.35074997 -0.32049999 130 146 143 10692.000000
12.41475010 -9.35050011 -0.31950000 130 146 143 8367.000000
12.41674995 -9.35200024 -0.31850001 130 146 143 5389.000000
12.41749954 -9.35249996 -0.31750000 130 146 143 3139.000000
12.42574978 -9.35875034 -0.31674999 130 146 143 1946.000000
12.42574978 -9.35849953 -0.31575000 130 146 143 1192.000000
12.43599987 -9.36649990 -0.31500000 105 121 120 1135.000000
12.44250011 -9.37125015 -0.31424999 105 121 120 1857.000000
12.44299984 -9.37150002 -0.31325001 105 121 120 4435.000000
12.44375038 -9.37224960 -0.31224999 105 121 120 9389.000000
12.44499969 -9.37325001 -0.31125000 105 121 120 16010.000000
12.44425011 -9.37249947 -0.31025001 105 121 120 20446.000000
12.44474983 -9.37300014 -0.30925000 134 148 149 22557.000000
12.44474983 -9.37300014 -0.30825001 134 148 149 24046.000000
12.44375038 -9.37224960 -0.30724999 134 148 149 25053.000000
12.44324970 -9.37174988 -0.30625001 134 148 149 25053.000000
12.44324970 -9.37174988 -0.30524999 134 148 149 25339.000000
12.44199944 -9.37100029 -0.30425000 134 148 149 24857.000000
12.44299984 -9.37174988 -0.30325001 134 148 149 25639.000000
12.44375038 -9.37224960 -0.30225000 207 218 222 24957.000000
12.44099998 -9.36999989 -0.30125001 207 218 222 25635.000000
12.44025040 -9.36975002 -0.30024999 207 218 222 26142.000000
12.44075012 -9.36999989 -0.29925001 207 218 222 27342.000000
12.44099998 -9.37024975 -0.29824999 207 218 222 27692.000000
12.44050026 -9.36975002 -0.29699999 207 218 222 27453.000000
12.44174957 -9.37075043 -0.29624999 218 227 236 28410.000000
12.44075012 -9.36999989 -0.29499999 218 227 236 28164.000000
12.43900013 -9.36874962 -0.29400000 218 227 236 27450.000000
12.43875027 -9.36849976 -0.29300001 218 227 236 26453.000000
12.43924999 -9.36874962 -0.29225001 218 227 236 25432.000000
12.43750000 -9.36750031 -0.29100001 218 227 236 26032.000000
12.43799973 -9.36800003 -0.28999999 218 227 236 26560.000000
12.43799973 -9.36800003 -0.28900000 229 233 245 27221.000000
12.43700027 -9.36725044 -0.28799999 229 233 245 27446.000000
12.43750000 -9.36750031 -0.28700000 229 233 245 27332.000000
12.43575001 -9.36625004 -0.28600001 229 233 245 25924.000000
12.43575001 -9.36625004 -0.28500000 229 233 245 25421.000000
12.43424988 -9.36524963 -0.28400001 229 233 245 24935.000000
12.43599987 -9.36625004 -0.28299999 231 230 248 24939.000000
12.43424988 -9.36524963 -0.28200001 231 230 248 24839.000000
12.43525028 -9.36575031 -0.28099999 231 230 248 24939.000000
12.43675041 -9.36699963 -0.28000000 231 230 248 24385.000000
12.43375015 -9.36474991 -0.27900001 231 230 248 21428.000000
12.43400002 -9.36474991 -0.27800000 231 230 248 16985.000000
12.43499947 -9.36575031 -0.27700001 231 230 248 11207.000000
12.43325043 -9.36425018 -0.27599999 208 203 226 6771.000000
12.43175030 -9.36324978 -0.27500001 208 203 226 4017.000000
12.43274975 -9.36400032 -0.27399999 208 203 226 2482.000000
12.43225002 -9.36349964 -0.27300000 208 203 226 1650.000000
12.42875004 -9.36100006 -0.27175000 208 203 226 1367.000000
12.43124962 -9.36275005 -0.27100000 208 203 226 1200.000000
12.43575001 -9.36625004 -0.27000001 160 151 180 1146.000000
12.43175030 -9.36324978 -0.26899999 160 151 180 1117.000000
12.43650055 -9.36674976 -0.26800001 160 151 180 1067.000000
12.42350006 -9.35700035 -0.26675001 160 151 180 989.000000
12.43025017 -9.36225033 -0.26600000 160 151 180 1021.000000
12.43200016 -9.36349964 -0.26499999 160 151 180 928.000000
12.42500019 -9.35799980 -0.26374999 160 151 180 875.000000
12.41899967 -9.35350037 -0.26275000 117 103 136 871.000000
12.43274975 -9.36400032 -0.26199999 117 103 136 967.000000
12.42899990 -9.36124992 -0.26075000 117 103 136 892.000000
12.42475033 -9.35799980 -0.25975001 117 103 136 935.000000
12.43050003 -9.36225033 -0.25900000 117 103 136 850.000000
12.42500019 -9.35799980 -0.25775000 117 103 136 885.000000
12.42000008 -9.35424995 -0.25674999 98 85 115 928.000000
12.42600060 -9.35875034 -0.25575000 98 85 115 992.000000
12.42024994 -9.35449982 -0.25475001 98 85 115 1010.000000
12.42875004 -9.36100006 -0.25400001 98 85 115 1114.000000
12.42199993 -9.35575008 -0.25275001 98 85 115 1235.000000
12.42500019 -9.35799980 -0.25174999 98 85 115 1528.000000
12.41825008 -9.35299969 -0.25049999 98 85 115 1935.000000
12.42049980 -9.35474968 -0.24975000 106 96 123 3000.000000
12.42125034 -9.35525036 -0.24875000 106 96 123 4700.000000
12.42125034 -9.35525036 -0.24775000 106 96 123 7542.000000
12.42275047 -9.35649967 -0.24675000 106 96 123 12221.000000
12.42199993 -9.35575008 -0.24575000 106 96 123 17142.000000
12.42249966 -9.35624981 -0.24474999 106 96 123 20928.000000
12.42099953 -9.35525036 -0.24375001 156 148 171 23060.000000
12.42000008 -9.35424995 -0.24275000 156 148 171 24346.000000
12.42024994 -9.35449982 -0.24175000 156 148 171 24903.000000
12.42049980 -9.35449982 -0.24075000 156 148 171 26092.000000
12.42125034 -9.35525036 -0.23975000 156 148 171 27292.000000
12.42000008 -9.35424995 -0.23875000 156 148 171 27400.000000
12.42049980 -9.35449982 -0.23774999 156 148 171 28110.000000
12.42074966 -9.35499954 -0.23675001 204 199 219 27639.000000
12.41899967 -9.35350037 -0.23575000 204 199 219 27396.000000
12.41825008 -9.35299969 -0.23475000 204 199 219 26400.000000
12.41724968 -9.35225010 -0.23375000 204 199 219 25878.000000
12.41774940 -9.35249996 -0.23275000 204 199 219 26507.000000
12.41749954 -9.35249996 -0.23175000 204 199 219 27167.000000
12.41650009 -9.35175037 -0.23074999 231 230 246 26939.000000
12.41549969 -9.35074997 -0.22950000 231 230 246 27050.000000
12.41524982 -9.35074997 -0.22849999 231 230 246 26082.000000
12.41499996 -9.35050011 -0.22750001 231 230 246 26610.000000
12.41524982 -9.35074997 -0.22650000 231 230 246 26503.000000
12.41450024 -9.35025024 -0.22550000 231 230 246 26392.000000
12.41499996 -9.35050011 -0.22450000 231 230 246 25871.000000
12.41475010 -9.35050011 -0.22375000 227 230 239 25571.000000
12.41399956 -9.34975052 -0.22274999 227 230 239 26078.000000
12.41324997 -9.34924984 -0.22149999 227 230 239 25971.000000
12.41275024 -9.34899998 -0.22050001 227 230 239 26603.000000
12.41250038 -9.34850025 -0.21950001 227 230 239 26496.000000
12.41300011 -9.34899998 -0.21850000 227 230 239 26821.000000
12.41074944 -9.34724998 -0.21750000 230 238 241 26382.000000
12.41125011 -9.34774971 -0.21650000 230 238 241 26175.000000
12.41074944 -9.34749985 -0.21550000 230 238 241 26600.000000
12.40999985 -9.34675026 -0.21450000 230 238 241 27260.000000
12.41049957 -9.34700012 -0.21349999 230 238 241 26382.000000
12.41100025 -9.34749985 -0.21250001 230 238 241 23289.000000
12.41149998 -9.34799957 -0.21150000 230 238 241 17310.000000
12.41024971 -9.34700012 -0.21050000 224 234 233 9332.000000
12.40925026 -9.34625053 -0.20950000 224 234 233 4617.000000
12.40799999 -9.34525013 -0.20850000 224 234 233 2267.000000
12.42000008 -9.35449982 -0.20774999 224 234 233 896.000000
12.41125011 -9.34875011 -0.34500000 134 144 145 1442.000000
12.41575050 -9.35249996 -0.34424999 134 144 145 1510.000000
12.41324997 -9.35050011 -0.34299999 134 144 145 1514.000000
12.41699982 -9.35325050 -0.34224999 134 144 145 1528.000000
12.41825008 -9.35424995 -0.34125000 134 144 145 1567.000000
12.41374969 -9.35099983 -0.34000000 115 127 127 1632.000000
12.41174984 -9.34924984 -0.33899999 115 127 127 1678.000000
12.41024971 -9.34825039 -0.33800000 115 127 127 1710.000000
12.41674995 -9.35299969 -0.33700001 115 127 127 1667.000000
12.41100025 -9.34875011 -0.33600000 115 127 127 1532.000000
12.41699982 -9.35325050 -0.33524999 115 127 127 1560.000000
12.41349983 -9.35074997 -0.33399999 109 121 119 1692.000000
12.41625023 -9.35274982 -0.33324999 109 121 119 1796.000000
12.41699982 -9.35350037 -0.33225000 109 121 119 1717.000000
12.41399956 -9.35099983 -0.33100000 109 121 119 1582.000000
12.41225052 -9.34975052 -0.33000001 109 121 119 1575.000000
12.41275024 -9.35000038 -0.32900000 109 121 119 1603.000000
12.41300011 -9.35050011 -0.32800001 109 121 119 2032.000000
12.41275024 -9.35025024 -0.32699999 135 150 147 2685.000000
12.41499996 -9.35175037 -0.32600001 135 150 147 3800.000000
12.41424942 -9.35124969 -0.32499999 135 150 147 5596.000000
12.41475010 -9.35175037 -0.32400000 135 150 147 7360.000000
12.41475010 -9.35175037 -0.32300001 135 150 147 8807.000000
12.41324997 -9.35050011 -0.32200000 135 150 147 9767.000000
12.41349983 -9.35074997 -0.32100001 130 146 143 11075.000000
12.41549969 -9.35225010 -0.32025000 130 146 143 10625.000000
12.41524982 -9.35200024 -0.31924999 130 146 143 8392.000000
12.41699982 -9.35325050 -0.31825000 130 146 143 5907.000000
12.41399956 -9.35099983 -0.31700000 130 146 143 3610.000000
12.41874981 -9.35449982 -0.31625000 130 146 143 1900.000000
12.42700005 -9.36100006 -0.31549999 130 146 143 1153.000000
12.44400024 -9.37374973 -0.31275001 105 121 120 4667.000000
12.44524956 -9.37475014 -0.31200001 105 121 120 9485.000000
12.44375038 -9.37349987 -0.31075001 105 121 120 15592.000000
12.44575024 -9.37500000 -0.31000000 105 121 120 19653.000000
12.44499969 -9.37450027 -0.30899999 134 148 149 22328.000000
12.44350052 -9.37325001 -0.30774999 134 148 149 23360.000000
12.44350052 -9.37325001 -0.30675000 134 148 149 24492.000000
12.44199944 -9.37224960 -0.30575001 134 148 149 24400.000000
12.44250011 -9.37249947 -0.30475000 134 148 149 25150.000000
12.44099998 -9.37150002 -0.30375001 134 148 149 25639.000000
12.44075012 -9.37125015 -0.30274999 207 218 222 25050.000000
12.44124985 -9.37150002 -0.30175000 207 218 222 25146.000000
12.44149971 -9.37199974 -0.30074999 207 218 222 25339.000000
12.44124985 -9.37174988 -0.29975000 207 218 222 26357.000000
12.43974972 -9.37049961 -0.29875001 207 218 222 27114.000000
12.43949986 -9.37049961 -0.29775000 207 218 222 26353.000000
12.43875027 -9.36975002 -0.29675001 207 218 222 26350.000000
12.44025040 -9.37075043 -0.29574999 218 227 236 27457.000000
12.43900013 -9.36999989 -0.29475001 218 227 236 27685.000000
12.43774986 -9.36899948 -0.29374999 218 227 236 26139.000000
12.43774986 -9.36899948 -0.29275000 218 227 236 25828.000000
12.43675041 -9.36824989 -0.29175001 218 227 236 26450.000000
12.43700027 -9.36849976 -0.29075000 218 227 236 27221.000000
12.43824959 -9.36950016 -0.28975001 218 227 236 27567.000000
12.43624973 -9.36775017 -0.28874999 229 233 245 27914.000000
12.43725014 -9.36849976 -0.28775001 229 233 245 27682.000000
12.43675041 -9.36824989 -0.28674999 229 233 245 26885.000000
12.43599987 -9.36775017 -0.28575000 229 233 245 25524.000000
12.43599987 -9.36775017 -0.28475001 229 233 245 25424.000000
12.43550014 -9.36725044 -0.28349999 229 233 245 25132.000000
12.43499947 -9.36699963 -0.28250000 231 230 248 25921.000000
12.43400002 -9.36625004 -0.28150001 231 230 248 24471.000000
12.43424988 -9.36649990 -0.28049999 231 230 248 22535.000000
12.43474960 -9.36674976 -0.27950001 231 230 248 18471.000000
12.43449974 -9.36649990 -0.27849999 231 230 248 13060.000000
12.43225002 -9.36499977 -0.27750000 231 230 248 7728.000000
12.43274975 -9.36524963 -0.27649999 231 230 248 4557.000000
12.43200016 -9.36474991 -0.27550000 208 203 226 2821.000000
12.43300056 -9.36549950 -0.27450001 208 203 226 1774.000000
12.42525005 -9.35949993 -0.27350000 208 203 226 1446.000000
12.43175030 -9.36450005 -0.27250001 208 203 226 1246.000000
12.42799950 -9.36174965 -0.27149999 208 203 226 1139.000000
12.42924976 -9.36250019 -0.27050000 208 203 226 1000.000000
12.43675041 -9.36824989 -0.26975000 160 151 180 1017.000000
12.43025017 -9.36349964 -0.26850000 160 151 180 1003.000000
12.43099976 -9.36375046 -0.26750001 160 151 180 1000.000000
12.43400002 -9.36600018 -0.26650000 160 151 180 946.000000
12.42724991 -9.36100006 -0.26550001 160 151 180 932.000000
12.42875004 -9.36225033 -0.26449999 160 151 180 971.000000
12.42825031 -9.36174965 -0.26350001 160 151 180 967.000000
12.42275047 -9.35750008 -0.26249999 117 103 136 942.000000
12.43249989 -9.36499977 -0.26150000 117 103 136 903.000000
12.42350006 -9.35824966 -0.26050001 117 103 136 928.000000
12.42500019 -9.35925007 -0.25950000 117 103 136 882.000000
12.42199993 -9.35725021 -0.25850001 117 103 136 907.000000
12.41825008 -9.35424995 -0.25725001 117 103 136 892.000000
12.42224979 -9.35725021 -0.25650001 98 85 115 857.000000
12.42749977 -9.36124992 -0.25549999 98 85 115 928.000000
12.42799950 -9.36174965 -0.25450000 98 85 115 960.000000
12.41549969 -9.35225010 -0.25325000 98 85 115 1060.000000
12.42549992 -9.35974979 -0.25250000 98 85 115 1214.000000
12.41874981 -9.35449982 -0.25125000 98 85 115 1450.000000
12.42549992 -9.35974979 -0.25049999 98 85 115 1799.000000
12.42650032 -9.36050034 -0.24950001 106 96 123 2585.000000
12.42125034 -9.35649967 -0.24824999 106 96 123 4135.000000
12.42199993 -9.35700035 -0.24725001 106 96 123 6750.000000
12.42099953 -9.35624981 -0.24625000 106 96 123 10789.000000
12.42249966 -9.35750008 -0.24525000 106 96 123 15342.000000
12.42000008 -9.35575008 -0.24425000 106 96 123 19550.000000
12.41975021 -9.35550022 -0.24325000 156 148 171 22900.000000
12.42049980 -9.35599995 -0.24225000 156 148 171 25000.000000
12.41874981 -9.35474968 -0.24124999 156 148 171 26300.000000
12.41925049 -9.35499954 -0.24025001 156 148 171 26621.000000
12.41874981 -9.35449982 -0.23925000 156 148 171 27060.000000
12.41899967 -9.35474968 -0.23825000 156 148 171 27746.000000
12.41849995 -9.35449982 -0.23725000 204 199 219 27171.000000
12.41899967 -9.35474968 -0.23625000 204 199 219 27400.000000
12.41849995 -9.35449982 -0.23525000 204 199 219 27060.000000
12.41724968 -9.35350037 -0.23424999 204 199 219 27282.000000
12.41724968 -9.35350037 -0.23325001 204 199 219 27514.000000
12.41650009 -9.35299969 -0.23225001 204 199 219 27282.000000
12.41575050 -9.35225010 -0.23125000 204 199 219 27278.000000
12.41524982 -9.35200024 -0.23025000 231 230 246 27164.000000
12.41575050 -9.35249996 -0.22925000 231 230 246 27164.000000
12.41475010 -9.35175037 -0.22825000 231 230 246 26828.000000
12.41475010 -9.35175037 -0.22724999 231 230 246 26828.000000
12.41450024 -9.35149956 -0.22624999 231 230 246 26185.000000
12.41349983 -9.35074997 -0.22525001 231 230 246 26182.000000
12.41399956 -9.35099983 -0.22425000 227 230 239 26392.000000
12.41300011 -9.35025024 -0.22325000 227 230 239 26285.000000
12.41374969 -9.35074997 -0.22225000 227 230 239 26285.000000
12.41199970 -9.34949970 -0.22125000 227 230 239 26821.000000
12.41149998 -9.34924984 -0.22025000 227 230 239 26928.000000
12.41250038 -9.34975052 -0.21924999 227 230 239 26932.000000
12.41225052 -9.34975052 -0.21825001 227 230 239 26714.000000
12.41125011 -9.34899998 -0.21725000 230 238 241 26603.000000
12.41174984 -9.34949970 -0.21625000 230 238 241 26928.000000
12.41174984 -9.34949970 -0.21525000 230 238 241 26603.000000
12.41100025 -9.34875011 -0.21425000 230 238 241 26817.000000
12.41225052 -9.34975052 -0.21325000 230 238 241 25367.000000
12.40950012 -9.34774971 -0.21224999 230 238 241 20382.000000
12.41100025 -9.34875011 -0.21125001 230 238 241 12753.000000
12.40799999 -9.34650040 -0.20999999 224 234 233 6514.000000
12.40950012 -9.34774971 -0.20925000 224 234 233 3021.000000
12.40925026 -9.34749985 -0.20825000 224 234 233 1532.000000
12.41650009 -9.35424995 -0.32775000 135 150 147 1164.000000
12.41074944 -9.34975052 -0.32650000 135 150 147 1771.000000
12.41349983 -9.35200024 -0.32550001 135 150 147 2835.000000
12.41349983 -9.35200024 -0.32449999 135 150 147 4528.000000
12.41399956 -9.35225010 -0.32350001 135 150 147 6789.000000
12.41225052 -9.35099983 -0.32249999 135 150 147 8817.000000
12.41399956 -9.35225010 -0.32150000 135 150 147 10785.000000
12.41499996 -9.35299969 -0.32049999 130 146 143 10342.000000
12.41424942 -9.35249996 -0.31950000 130 146 143 8989.000000
12.41499996 -9.35299969 -0.31850001 130 146 143 6939.000000
12.41424942 -9.35249996 -0.31750000 130 146 143 4446.000000
12.41950035 -9.35649967 -0.31674999 130 146 143 2478.000000
12.41975021 -9.35649967 -0.31575000 130 146 143 1407.000000
12.44000053 -9.37199974 -0.31325001 105 121 120 3139.000000
12.44274998 -9.37399960 -0.31224999 105 121 120 7103.000000
12.44425011 -9.37500000 -0.31125000 105 121 120 12432.000000
12.44575024 -9.37625027 -0.31025001 105 121 120 17742.000000
12.44299984 -9.37425041 -0.30925000 134 148 149 21378.000000
12.44350052 -9.37450027 -0.30825001 134 148 149 23196.000000
12.44350052 -9.37450027 -0.30724999 134 148 149 24132.000000
12.44225025 -9.37349987 -0.30625001 134 148 149 24860.000000
12.44250011 -9.37374973 -0.30524999 134 148 149 25542.000000
12.44124985 -9.37300014 -0.30425000 134 148 149 25739.000000
12.44174957 -9.37325001 -0.30325001 134 148 149 25439.000000
12.44099998 -9.37275028 -0.30225000 207 218 222 25146.000000
12.44025040 -9.37224960 -0.30125001 207 218 222 25735.000000
12.44050026 -9.37224960 -0.30024999 207 218 222 25939.000000
12.43900013 -9.37125015 -0.29925001 207 218 222 25935.000000
12.44000053 -9.37199974 -0.29824999 207 218 222 26042.000000
12.43900013 -9.37125015 -0.29725000 207 218 222 27000.000000
12.43849945 -9.37075043 -0.29624999 218 227 236 26889.000000
12.43875027 -9.37100029 -0.29525000 218 227 236 27000.000000
12.43824959 -9.37049961 -0.29425001 218 227 236 26035.000000
12.43799973 -9.37024975 -0.29324999 218 227 236 26246.000000
12.43725014 -9.36975002 -0.29225001 218 227 236 27335.000000
12.43774986 -9.37024975 -0.29124999 218 227 236 27800.000000
12.43675041 -9.36950016 -0.28999999 218 227 236 27917.000000
12.43624973 -9.36925030 -0.28900000 229 233 245 28157.000000
12.43624973 -9.36925030 -0.28799999 229 233 245 28646.000000
12.43624973 -9.36899948 -0.28700000 229 233 245 28035.000000
12.43474960 -9.36800003 -0.28600001 229 233 245 27442.000000
12.43449974 -9.36775017 -0.28500000 229 233 245 26446.000000
12.43474960 -9.36800003 -0.28400001 229 233 245 25324.000000
12.43449974 -9.36775017 -0.28299999 231 230 248 25421.000000
12.43400002 -9.36750031 -0.28200001 231 230 248 25128.000000
12.43424988 -9.36750031 -0.28099999 231 230 248 22385.000000
12.43325043 -9.36674976 -0.28000000 231 230 248 17821.000000
12.43350029 -9.36699963 -0.27900001 231 230 248 11585.000000
12.43499947 -9.36800003 -0.27800000 231 230 248 6703.000000
12.43124962 -9.36524963 -0.27700001 231 230 248 3989.000000
12.43400002 -9.36750031 -0.27599999 208 203 226 2596.000000
12.43274975 -9.36649990 -0.27500001 208 203 226 1725.000000
12.43550014 -9.36849976 -0.27399999 208 203 226 1328.000000
12.42399979 -9.35974979 -0.27274999 208 203 226 1246.000000
12.42574978 -9.36124992 -0.27175000 208 203 226 1050.000000
12.43074989 -9.36499977 -0.27100000 208 203 226 1042.000000
12.42475033 -9.36050034 -0.26975000 160 151 180 892.000000
12.43000031 -9.36450005 -0.26899999 160 151 180 928.000000
12.42525005 -9.36075020 -0.26774999 160 151 180 967.000000
12.42325020 -9.35925007 -0.26675001 160 151 180 950.000000
12.42774963 -9.36250019 -0.26574999 160 151 180 925.000000
12.42975044 -9.36425018 -0.26499999 160 151 180 853.000000
12.43074989 -9.36499977 -0.26400000 160 151 180 899.000000
12.42350006 -9.35949993 -0.26275000 117 103 136 942.000000
12.42374992 -9.35949993 -0.26175001 117 103 136 950.000000
12.42374992 -9.35974979 -0.26075000 117 103 136 932.000000
12.42275047 -9.35900021 -0.25975001 117 103 136 914.000000
12.41275024 -9.35124969 -0.25850001 117 103 136 839.000000
12.41925049 -9.35624981 -0.25775000 117 103 136 914.000000
12.42374992 -9.35949993 -0.25674999 98 85 115 907.000000
12.43424988 -9.36775017 -0.25600001 98 85 115 885.000000
12.41749954 -9.35499954 -0.25450000 98 85 115 850.000000
12.41524982 -9.35325050 -0.25350001 98 85 115 910.000000
12.42224979 -9.35849953 -0.25275001 98 85 115 975.000000
12.42275047 -9.35900021 -0.25174999 98 85 115 1053.000000
12.42199993 -9.35824966 -0.25075001 98 85 115 1246.000000
12.42374992 -9.35949993 -0.24975000 106 96 123 1514.000000
12.41874981 -9.35599995 -0.24875000 106 96 123 2071.000000
12.42024994 -9.35700035 -0.24775000 106 96 123 3267.000000
12.42199993 -9.35824966 -0.24675000 106 96 123 5135.000000
12.42099953 -9.35750008 -0.24575000 106 96 123 8332.000000
12.42150021 -9.35799980 -0.24474999 106 96 123 12642.000000
12.42175007 -9.35799980 -0.24375001 156 148 171 17850.000000
12.42024994 -9.35700035 -0.24275000 156 148 171 21614.000000
12.41975021 -9.35649967 -0.24175000 156 148 171 23560.000000
12.42099953 -9.35750008 -0.24075000 156 148 171 25289.000000
12.41849995 -9.35575008 -0.23975000 156 148 171 27060.000000
12.41899967 -9.35599995 -0.23875000 156 148 171 26732.000000
12.42024994 -9.35700035 -0.23774999 156 148 171 27178.000000
12.41825008 -9.35550022 -0.23675001 204 199 219 26946.000000
12.41874981 -9.35575008 -0.23575000 204 199 219 27517.000000
12.41774940 -9.35525036 -0.23475000 204 199 219 27746.000000
12.41774940 -9.35499954 -0.23375000 204 199 219 27396.000000
12.41625023 -9.35400009 -0.23275000 204 199 219 26942.000000
12.41650009 -9.35424995 -0.23175000 204 199 219 27282.000000
12.41524982 -9.35325050 -0.23074999 231 230 246 26832.000000
12.41399956 -9.35225010 -0.22975001 231 230 246 27164.000000
12.41600037 -9.35375023 -0.22875001 231 230 246 26942.000000
12.41324997 -9.35175037 -0.22775000 231 230 246 26717.000000
12.41424942 -9.35249996 -0.22675000 231 230 246 26185.000000
12.41424942 -9.35225010 -0.22575000 231 230 246 25871.000000
12.41349983 -9.35175037 -0.22475000 231 230 246 26610.000000
12.41324997 -9.35175037 -0.22375000 227 230 239 27503.000000
12.41349983 -9.35200024 -0.22274999 227 230 239 27160.000000
12.41250038 -9.35124969 -0.22149999 227 230 239 27046.000000
12.41024971 -9.34949970 -0.22050001 227 230 239 26385.000000
12.41149998 -9.35050011 -0.21950001 227 230 239 26074.000000
12.41250038 -9.35099983 -0.21850000 227 230 239 26607.000000
12.41024971 -9.34949970 -0.21750000 230 238 241 26600.000000
12.41049957 -9.34949970 -0.21650000 230 238 241 27039.000000
12.40999985 -9.34924984 -0.21550000 230 238 241 27153.000000
12.41049957 -9.34975052 -0.21450000 230 238 241 27039.000000
12.41074944 -9.35000038 -0.21349999 230 238 241 25564.000000
12.41024971 -9.34949970 -0.21250001 230 238 241 20010.000000
12.40799999 -9.34774971 -0.21150000 230 238 241 12389.000000
12.40974998 -9.34899998 -0.21050000 224 234 233 6028.000000
12.40699959 -9.34700012 -0.20950000 224 234 233 2957.000000
12.40600014 -9.34625053 -0.20850000 224 234 233 1317.000000
12.41275024 -9.35274982 -0.32600001 166 181 174 1110.000000
12.41374969 -9.35350037 -0.32499999 166 181 174 1835.000000
12.41275024 -9.35274982 -0.32400000 166 181 174 3378.000000
12.41225052 -9.35225010 -0.32300001 166 181 174 5257.000000
12.41324997 -9.35299969 -0.32200000 166 181 174 7625.000000
12.41374969 -9.35350037 -0.32100001 183 200 192 9339.000000
12.41300011 -9.35274982 -0.31999999 183 200 192 9428.000000
12.41450024 -9.35400009 -0.31900001 183 200 192 8421.000000
12.41524982 -9.35449982 -0.31825000 183 200 192 6928.000000
12.41450024 -9.35400009 -0.31725001 183 200 192 4903.000000
12.41600037 -9.35499954 -0.31625000 183 200 192 2903.000000
12.42249966 -9.35999966 -0.31549999 183 200 192 1650.000000
12.43849945 -9.37199974 -0.31275001 138 155 149 2810.000000
12.44400024 -9.37625027 -0.31200001 138 155 149 6200.000000
12.44474983 -9.37674999 -0.31099999 138 155 149 11357.000000
12.44324970 -9.37574959 -0.30974999 138 155 149 16578.000000
12.44274998 -9.37524986 -0.30875000 130 147 141 20703.000000
12.44199944 -9.37475014 -0.30774999 130 147 141 23360.000000
12.44274998 -9.37524986 -0.30675000 130 147 141 25153.000000
12.44225025 -9.37500000 -0.30575001 130 147 141 26257.000000
12.44225025 -9.37500000 -0.30475000 130 147 141 26050.000000
12.43974972 -9.37300014 -0.30375001 130 147 141 25635.000000
12.44000053 -9.37325001 -0.30274999 130 147 141 25739.000000
12.44099998 -9.37399960 -0.30175000 188 202 202 25150.000000
12.44000053 -9.37325001 -0.30074999 188 202 202 24857.000000
12.43949986 -9.37300014 -0.29975000 188 202 202 24857.000000
12.43924999 -9.37275028 -0.29875001 188 202 202 25435.000000
12.43924999 -9.37275028 -0.29775000 188 202 202 26460.000000
12.43799973 -9.37174988 -0.29675001 188 202 202 27339.000000
12.43875027 -9.37224960 -0.29574999 203 212 217 26457.000000
12.43675041 -9.37075043 -0.29475001 203 212 217 25928.000000
12.43750000 -9.37125015 -0.29374999 203 212 217 26564.000000
12.43599987 -9.37024975 -0.29275000 203 212 217 27107.000000
12.43700027 -9.37100029 -0.29175001 203 212 217 27450.000000
12.43575001 -9.36999989 -0.29075000 203 212 217 27796.000000
12.43550014 -9.36975002 -0.28975001 203 212 217 27332.000000
12.43650055 -9.37049961 -0.28874999 215 219 230 27335.000000
12.43675041 -9.37075043 -0.28775001 215 219 230 26560.000000
12.43474960 -9.36925030 -0.28674999 215 219 230 27103.000000
12.43525028 -9.36950016 -0.28575000 215 219 230 26342.000000
12.43424988 -9.36899948 -0.28475001 215 219 230 26239.000000
12.43249989 -9.36750031 -0.28349999 215 219 230 24839.000000
12.43274975 -9.36775017 -0.28250000 207 206 224 23760.000000
12.43350029 -9.36824989 -0.28150001 207 206 224 21021.000000
12.43375015 -9.36849976 -0.28049999 207 206 224 15360.000000
12.43300056 -9.36800003 -0.27950001 207 206 224 9528.000000
12.43025017 -9.36575031 -0.27849999 207 206 224 5360.000000
12.43074989 -9.36625004 -0.27750000 207 206 224 3353.000000
12.43175030 -9.36699963 -0.27649999 207 206 224 2046.000000
12.43474960 -9.36925030 -0.27575001 165 160 183 1528.000000
12.43300056 -9.36800003 -0.27450001 165 160 183 1221.000000
12.43375015 -9.36849976 -0.27350000 165 160 183 1128.000000
12.43249989 -9.36750031 -0.27250001 165 160 183 985.000000
12.43400002 -9.36874962 -0.27175000 165 160 183 1003.000000
12.43325043 -9.36800003 -0.27074999 165 160 183 964.000000
12.42650032 -9.36299992 -0.26949999 111 100 130 939.000000
12.43550014 -9.36975002 -0.26875001 111 100 130 957.000000
12.42875004 -9.36474991 -0.26750001 111 100 130 985.000000
12.41625023 -9.35525036 -0.26625001 111 100 130 928.000000
12.42175007 -9.35949993 -0.26525000 111 100 130 867.000000
12.42749977 -9.36375046 -0.26449999 111 100 130 867.000000
12.42625046 -9.36275005 -0.26350001 111 100 130 964.000000
12.41975021 -9.35799980 -0.26225001 92 78 113 950.000000
12.42074966 -9.35875034 -0.26150000 92 78 113 892.000000
12.42600060 -9.36275005 -0.26050001 92 78 113 885.000000
12.41899967 -9.35750008 -0.25924999 92 78 113 896.000000
12.42950058 -9.36524963 -0.25850001 92 78 113 846.000000
12.41899967 -9.35725021 -0.25725001 92 78 113 903.000000
12.42825031 -9.36425018 -0.25650001 107 93 126 871.000000
12.41899967 -9.35725021 -0.25525001 107 93 126 932.000000
12.42399979 -9.36100006 -0.25450000 107 93 126 907.000000
12.42150021 -9.35925007 -0.25350001 107 93 126 907.000000
12.41724968 -9.35599995 -0.25224999 107 93 126 1025.000000
12.42099953 -9.35875034 -0.25125000 107 93 126 1075.000000
12.41975021 -9.35774994 -0.25025001 107 93 126 1210.000000
12.42074966 -9.35849953 -0.24924999 100 90 117 1485.000000
12.42150021 -9.35925007 -0.24850000 100 90 117 1935.000000
12.42049980 -9.35849953 -0.24725001 100 90 117 2725.000000
12.42074966 -9.35875034 -0.24625000 100 90 117 4335.000000
12.42024994 -9.35824966 -0.24525000 100 90 117 7039.000000
12.41950035 -9.35774994 -0.24425000 100 90 117 11064.000000
12.42000008 -9.35824966 -0.24325000 109 104 126 15160.000000
12.42024994 -9.35824966 -0.24225000 109 104 126 18985.000000
12.41849995 -9.35700035 -0.24124999 109 104 126 22582.000000
12.41925049 -9.35750008 -0.24025001 109 104 126 24717.000000
12.41899967 -9.35725021 -0.23925000 109 104 126 25192.000000
12.41825008 -9.35675049 -0.23825000 109 104 126 26407.000000
12.41749954 -9.35624981 -0.23725000 109 104 126 27400.000000
12.41774940 -9.35649967 -0.23625000 155 152 171 27746.000000
12.41625023 -9.35525036 -0.23525000 155 152 171 27514.000000
12.41625023 -9.35525036 -0.23424999 155 152 171 27171.000000
12.41625023 -9.35525036 -0.23325001 155 152 171 27171.000000
12.41600037 -9.35499954 -0.23225001 155 152 171 27057.000000
