//X Y Z R G B Intensity
12.42500019 -9.37674999 -0.28049999 151 158 164 871.000000
12.42449951 -9.37650013 -0.27950001 151 158 164 878.000000
12.42099953 -9.37374973 -0.27825001 111 112 130 853.000000
12.42949963 -9.38024998 -0.27750000 111 112 130 782.000000
12.42625046 -9.37775040 -0.27649999 111 112 130 850.000000
12.43175030 -9.38175011 -0.27550000 111 112 130 796.000000
12.42150021 -9.37399960 -0.27425000 111 112 130 878.000000
12.42275047 -9.37500000 -0.27325001 111 112 130 771.000000
12.42099953 -9.37374973 -0.27225000 98 94 121 832.000000
12.43025017 -9.38074970 -0.27149999 98 94 121 771.000000
12.43050003 -9.38074970 -0.27050000 98 94 121 789.000000
12.41950035 -9.37250042 -0.26925001 98 94 121 846.000000
12.41775036 -9.37125015 -0.26824999 98 94 121 789.000000
12.42650032 -9.37775040 -0.26750001 98 94 121 839.000000
12.42850018 -9.37924957 -0.26650000 98 94 121 832.000000
12.42424965 -9.37625027 -0.26525000 93 85 122 892.000000
12.41399956 -9.36849976 -0.26400000 93 85 122 921.000000
12.41950035 -9.37250042 -0.26324999 93 85 122 850.000000
12.42374992 -9.37574959 -0.26225001 93 85 122 821.000000
12.41699982 -9.37075043 -0.26124999 93 85 122 892.000000
12.41925049 -9.37250042 -0.26025000 93 85 122 860.000000
12.42675018 -9.37800026 -0.25950000 94 82 122 728.000000
12.41650009 -9.37024975 -0.25825000 94 82 122 789.000000
12.41199970 -9.36699963 -0.25700000 94 82 122 764.000000
12.41300011 -9.36775017 -0.25600001 94 82 122 821.000000
12.41925049 -9.37250042 -0.25525001 94 82 122 803.000000
12.41575050 -9.36975002 -0.25400001 94 82 122 767.000000
12.41250038 -9.36725044 -0.25299999 94 82 122 767.000000
12.41849995 -9.37174988 -0.25224999 95 81 117 785.000000
12.41575050 -9.36975002 -0.25099999 95 81 117 764.000000
12.41925049 -9.37224960 -0.25025001 95 81 117 742.000000
12.41024971 -9.36575031 -0.24900000 95 81 117 803.000000
12.41950035 -9.37250042 -0.24824999 95 81 117 792.000000
12.41100025 -9.36625004 -0.24699999 95 81 117 835.000000
12.42074966 -9.37349987 -0.24625000 94 81 111 842.000000
12.40999985 -9.36549950 -0.24500000 94 81 111 871.000000
12.41149998 -9.36649990 -0.24400000 94 81 111 867.000000
12.41475010 -9.36900043 -0.24300000 94 81 111 942.000000
12.40875053 -9.36450005 -0.24200000 94 81 111 1017.000000
12.40674973 -9.36299992 -0.24100000 94 81 111 1010.000000
12.41024971 -9.36549950 -0.23999999 94 81 111 1167.000000
12.40775013 -9.36375046 -0.23899999 99 89 114 1428.000000
12.40950012 -9.36499977 -0.23800001 99 89 114 1739.000000
12.41049957 -9.36600018 -0.23700000 99 89 114 2435.000000
12.40824986 -9.36400032 -0.23600000 99 89 114 3628.000000
12.41125011 -9.36625004 -0.23500000 99 89 114 5682.000000
12.40824986 -9.36425018 -0.23400000 99 89 114 8796.000000
12.40925026 -9.36474991 -0.23300000 135 131 148 13228.000000
12.40849972 -9.36425018 -0.23199999 135 131 148 18035.000000
12.40699959 -9.36324978 -0.23100001 135 131 148 20782.000000
12.40849972 -9.36425018 -0.23000000 135 131 148 23385.000000
12.40750027 -9.36349964 -0.22900000 135 131 148 24800.000000
12.40725040 -9.36349964 -0.22800000 135 131 148 26503.000000
12.40649986 -9.36275005 -0.22700000 135 131 148 26610.000000
12.40674973 -9.36299992 -0.22600000 194 194 204 26614.000000
12.40699959 -9.36299992 -0.22499999 194 194 204 26614.000000
12.40649986 -9.36275005 -0.22400001 194 194 204 27625.000000
12.40524960 -9.36174965 -0.22300000 194 194 204 28092.000000
12.40374947 -9.36075020 -0.22200000 194 194 204 26714.000000
12.40425014 -9.36100006 -0.22100000 194 194 204 25567.000000
12.40474987 -9.36149979 -0.22000000 225 231 231 25271.000000
12.40400028 -9.36100006 -0.21900000 225 231 231 23128.000000
12.40349960 -9.36050034 -0.21799999 225 231 231 17732.000000
12.40324974 -9.36025047 -0.21699999 225 231 231 10289.000000
12.40250015 -9.35974979 -0.21600001 225 231 231 5039.000000
12.40275002 -9.35999966 -0.21500000 225 231 231 2707.000000
12.39525032 -9.35424995 -0.21375000 225 231 231 1217.000000
12.40974998 -9.36649990 -0.31950000 169 185 182 1739.000000
12.40450001 -9.36275005 -0.31825000 169 185 182 3025.000000
12.40974998 -9.36649990 -0.31750000 169 185 182 4653.000000
12.40725040 -9.36450005 -0.31650001 184 203 199 6396.000000
12.40699959 -9.36450005 -0.31549999 184 203 199 8000.000000
12.40950012 -9.36625004 -0.31450000 184 203 199 9210.000000
12.40775013 -9.36499977 -0.31349999 184 203 199 8821.000000
12.40849972 -9.36549950 -0.31250000 184 203 199 6882.000000
12.40974998 -9.36649990 -0.31150001 184 203 199 4785.000000
12.41125011 -9.36750031 -0.31050000 142 161 155 2728.000000
12.41374969 -9.36950016 -0.30950001 142 161 155 1521.000000
12.42599964 -9.37874985 -0.30899999 142 161 155 1210.000000
12.43025017 -9.38199997 -0.30800000 142 161 155 1532.000000
12.43350029 -9.38424969 -0.30700001 142 161 155 2771.000000
12.43325043 -9.38424969 -0.30599999 142 161 155 5335.000000
12.43449974 -9.38525009 -0.30500001 134 154 145 9239.000000
12.43350029 -9.38450050 -0.30399999 134 154 145 14617.000000
12.43299961 -9.38399982 -0.30300000 134 154 145 20382.000000
12.43299961 -9.38399982 -0.30199999 134 154 145 24307.000000
12.43175030 -9.38300037 -0.30100000 134 154 145 25239.000000
12.43274975 -9.38374996 -0.30000001 134 154 145 24767.000000
12.43149948 -9.38300037 -0.29899999 134 154 145 24303.000000
12.43124962 -9.38274956 -0.29800001 190 207 199 24764.000000
12.43124962 -9.38274956 -0.29699999 190 207 199 24578.000000
12.43099976 -9.38249969 -0.29600000 190 207 199 24764.000000
12.43000031 -9.38175011 -0.29499999 190 207 199 24575.000000
12.43175030 -9.38300037 -0.29400000 190 207 199 23864.000000
12.43000031 -9.38175011 -0.29300001 190 207 199 19703.000000
12.43099976 -9.38249969 -0.29200000 201 213 211 13782.000000
12.42975044 -9.38150024 -0.29100001 201 213 211 7667.000000
12.43074989 -9.38224983 -0.28999999 201 213 211 4471.000000
12.42825031 -9.38049984 -0.28900000 201 213 211 2650.000000
12.42949963 -9.38150024 -0.28799999 201 213 211 1742.000000
12.43175030 -9.38325024 -0.28700000 201 213 211 1346.000000
12.43025017 -9.38199997 -0.28600001 201 213 211 1146.000000
12.42700005 -9.37950039 -0.28500000 151 158 164 1107.000000
12.42399979 -9.37724972 -0.28400001 151 158 164 1028.000000
12.42099953 -9.37500000 -0.28275001 151 158 164 953.000000
12.42975044 -9.38175011 -0.28200001 151 158 164 942.000000
12.41899967 -9.37349987 -0.28075001 151 158 164 846.000000
12.43025017 -9.38199997 -0.28000000 151 158 164 878.000000
12.41749954 -9.37250042 -0.27875000 111 112 130 864.000000
12.42350006 -9.37699986 -0.27774999 111 112 130 867.000000
12.42275047 -9.37650013 -0.27675000 111 112 130 828.000000
12.42724991 -9.37975025 -0.27599999 111 112 130 778.000000
12.43375015 -9.38475037 -0.27500001 111 112 130 728.000000
12.42449951 -9.37775040 -0.27375001 111 112 130 807.000000
12.42099953 -9.37500000 -0.27274999 111 112 130 850.000000
12.43149948 -9.38300037 -0.27200001 98 94 121 864.000000
12.41975021 -9.37425041 -0.27074999 98 94 121 814.000000
12.42500019 -9.37800026 -0.26975000 98 94 121 789.000000
12.41950035 -9.37399960 -0.26875001 98 94 121 775.000000
12.42000008 -9.37425041 -0.26774999 98 94 121 814.000000
12.42724991 -9.37975025 -0.26675001 98 94 121 864.000000
12.41899967 -9.37374973 -0.26574999 93 85 122 899.000000
12.41899967 -9.37374973 -0.26475000 93 85 122 910.000000
12.41650009 -9.37150002 -0.26374999 93 85 122 914.000000
12.40775013 -9.36499977 -0.26249999 93 85 122 817.000000
12.42475033 -9.37800026 -0.26175001 93 85 122 925.000000
12.41950035 -9.37399960 -0.26075000 93 85 122 789.000000
12.42175007 -9.37549973 -0.25975001 93 85 122 800.000000
12.42074966 -9.37475014 -0.25874999 94 82 122 789.000000
12.41524982 -9.37075043 -0.25749999 94 82 122 764.000000
12.41275024 -9.36900043 -0.25650001 94 82 122 750.000000
12.42374992 -9.37724972 -0.25575000 94 82 122 792.000000
12.42399979 -9.37749958 -0.25475001 94 82 122 778.000000
12.41975021 -9.37399960 -0.25375000 94 82 122 703.000000
12.41699982 -9.37199974 -0.25275001 95 81 117 753.000000
12.41399956 -9.36975002 -0.25150001 95 81 117 707.000000
12.41199970 -9.36824989 -0.25049999 95 81 117 682.000000
12.40799999 -9.36524963 -0.24950001 95 81 117 725.000000
12.42399979 -9.37724972 -0.24875000 95 81 117 728.000000
12.41075039 -9.36725044 -0.24750000 95 81 117 828.000000
12.41300011 -9.36900043 -0.24650000 95 81 117 853.000000
12.41425037 -9.36999989 -0.24575000 94 81 111 871.000000
12.41374969 -9.36950016 -0.24474999 94 81 111 882.000000
12.40725040 -9.36450005 -0.24349999 94 81 111 814.000000
12.40950012 -9.36625004 -0.24250001 94 81 111 889.000000
12.41349983 -9.36950016 -0.24175000 94 81 111 892.000000
12.40649986 -9.36425018 -0.24050000 94 81 111 1010.000000
12.40824986 -9.36524963 -0.23950000 99 89 114 1150.000000
12.40550041 -9.36324978 -0.23850000 99 89 114 1267.000000
12.41549969 -9.37100029 -0.23774999 99 89 114 1510.000000
12.40775013 -9.36499977 -0.23649999 99 89 114 1907.000000
12.40974998 -9.36649990 -0.23549999 99 89 114 2771.000000
12.40649986 -9.36400032 -0.23450001 99 89 114 4453.000000
12.40925026 -9.36600018 -0.23350000 99 89 114 7382.000000
12.40974998 -9.36649990 -0.23250000 135 131 148 11407.000000
12.40974998 -9.36649990 -0.23150000 135 131 148 15446.000000
12.40600014 -9.36349964 -0.23050000 135 131 148 19367.000000
12.40575027 -9.36324978 -0.22950000 135 131 148 22421.000000
12.40725040 -9.36450005 -0.22849999 135 131 148 24610.000000
12.40575027 -9.36349964 -0.22750001 135 131 148 25671.000000
12.40450001 -9.36250019 -0.22650000 194 194 204 25471.000000
12.40374947 -9.36199951 -0.22550000 194 194 204 25567.000000
12.40575027 -9.36349964 -0.22450000 194 194 204 26503.000000
12.40699959 -9.36450005 -0.22350000 194 194 204 27510.000000
12.40450001 -9.36250019 -0.22250000 194 194 204 27732.000000
12.40450001 -9.36250019 -0.22149999 194 194 204 26935.000000
12.40474987 -9.36275005 -0.22050001 194 194 204 25974.000000
12.40324974 -9.36149979 -0.21950001 225 231 231 23975.000000
12.40374947 -9.36199951 -0.21850000 225 231 231 19082.000000
12.40225029 -9.36075020 -0.21750000 225 231 231 12046.000000
12.40200043 -9.36075020 -0.21650000 225 231 231 5878.000000
12.39925003 -9.35849953 -0.21525000 225 231 231 3042.000000
12.40149975 -9.36025047 -0.21450000 225 231 231 1475.000000
12.40524960 -9.36450005 -0.31900001 163 180 172 1417.000000
12.40349960 -9.36299992 -0.31799999 163 180 172 2714.000000
12.40600014 -9.36499977 -0.31700000 190 210 199 4967.000000
12.40625000 -9.36524963 -0.31600001 190 210 199 7271.000000
12.40799999 -9.36649990 -0.31500000 190 210 199 8657.000000
12.40600014 -9.36499977 -0.31400001 190 210 199 9417.000000
12.40875053 -9.36699963 -0.31299999 190 210 199 8896.000000
12.40600014 -9.36474991 -0.31200001 190 210 199 7074.000000
12.40775013 -9.36625004 -0.31099999 190 210 199 4903.000000
12.40875053 -9.36699963 -0.31000000 160 180 168 2875.000000
12.41374969 -9.37075043 -0.30925000 160 180 168 1642.000000
12.42024994 -9.37574959 -0.30825001 160 180 168 1250.000000
12.43000031 -9.38300037 -0.30750000 160 180 168 1453.000000
12.43299961 -9.38525009 -0.30649999 160 180 168 2407.000000
12.43025017 -9.38325024 -0.30550000 160 180 168 4739.000000
12.43274975 -9.38500023 -0.30450001 130 151 136 8925.000000
12.43424988 -9.38624954 -0.30350000 130 151 136 14650.000000
12.43299961 -9.38525009 -0.30250001 130 151 136 19828.000000
12.43274975 -9.38500023 -0.30149999 130 151 136 22632.000000
12.43225002 -9.38475037 -0.30050001 130 151 136 23867.000000
12.43050003 -9.38350010 -0.29949999 130 151 136 24035.000000
12.43299961 -9.38525009 -0.29850000 145 163 151 24400.000000
12.43050003 -9.38325024 -0.29750001 145 163 151 24303.000000
12.43025017 -9.38300037 -0.29650000 145 163 151 24035.000000
12.43050003 -9.38350010 -0.29550001 145 163 151 24035.000000
12.43050003 -9.38325024 -0.29449999 145 163 151 22021.000000
12.42975044 -9.38274956 -0.29350001 145 163 151 17132.000000
12.42949963 -9.38249969 -0.29249999 145 163 151 11310.000000
12.42799950 -9.38150024 -0.29150000 152 165 158 6307.000000
12.42799950 -9.38150024 -0.29049999 152 165 158 4050.000000
12.42700005 -9.38074970 -0.28950000 201 213 211 2489.000000
12.43074989 -9.38350010 -0.28850001 152 165 158 1625.000000
12.42774963 -9.38125038 -0.28749999 201 213 211 1235.000000
12.42224979 -9.37724972 -0.28625000 201 213 211 1139.000000
12.42675018 -9.38049984 -0.28549999 151 158 164 1028.000000
12.42949963 -9.38249969 -0.28450000 151 158 164 1003.000000
12.42300034 -9.37775040 -0.28325000 151 158 164 928.000000
12.42399979 -9.37825012 -0.28224999 151 158 164 925.000000
12.41650009 -9.37275028 -0.28125000 151 158 164 914.000000
12.42650032 -9.38024998 -0.28049999 151 158 164 882.000000
12.42275047 -9.37749958 -0.27925000 151 158 164 846.000000
12.42599964 -9.38000011 -0.27849999 111 112 130 925.000000
12.42449951 -9.37874985 -0.27750000 111 112 130 867.000000
12.42825031 -9.38175011 -0.27649999 111 112 130 760.000000
12.42249966 -9.37724972 -0.27524999 111 112 130 782.000000
12.41650009 -9.37275028 -0.27425000 111 112 130 700.000000
12.42424965 -9.37849998 -0.27350000 111 112 130 807.000000
12.43499947 -9.38675022 -0.27274999 98 94 121 778.000000
12.42350006 -9.37800026 -0.27149999 98 94 121 800.000000
12.42024994 -9.37574959 -0.27024999 98 94 121 853.000000
12.41125011 -9.36874962 -0.26899999 98 94 121 792.000000
12.41699982 -9.37325001 -0.26824999 98 94 121 853.000000
12.42099953 -9.37600040 -0.26725000 98 94 121 871.000000
12.42000008 -9.37549973 -0.26625001 98 94 121 864.000000
12.42525005 -9.37924957 -0.26550001 93 85 122 846.000000
12.40999985 -9.36800003 -0.26400000 93 85 122 853.000000
12.42325020 -9.37775040 -0.26324999 93 85 122 878.000000
12.41925049 -9.37475014 -0.26225001 93 85 122 899.000000
12.42150021 -9.37650013 -0.26124999 93 85 122 864.000000
12.41425037 -9.37100029 -0.26025000 93 85 122 803.000000
12.41300011 -9.36999989 -0.25924999 94 82 122 771.000000
12.41399956 -9.37075043 -0.25825000 94 82 122 760.000000
12.41575050 -9.37199974 -0.25725001 94 82 122 764.000000
12.42175007 -9.37674999 -0.25624999 94 82 122 753.000000
12.40575027 -9.36474991 -0.25500000 94 82 122 814.000000
12.41275024 -9.36999989 -0.25400001 94 82 122 750.000000
12.42099953 -9.37600040 -0.25325000 94 82 122 710.000000
12.41749954 -9.37349987 -0.25224999 95 81 117 671.000000
12.40875053 -9.36674976 -0.25099999 95 81 117 696.000000
12.41374969 -9.37075043 -0.25000000 95 81 117 728.000000
12.41425037 -9.37100029 -0.24900000 95 84 116 771.000000
12.40950012 -9.36750031 -0.24800000 95 81 117 842.000000
12.41225052 -9.36975002 -0.24699999 95 84 116 825.000000
12.40849972 -9.36674976 -0.24600001 96 87 114 810.000000
12.40950012 -9.36750031 -0.24500000 96 87 114 817.000000
12.41775036 -9.37374973 -0.24425000 96 87 114 803.000000
12.41450024 -9.37150002 -0.24300000 96 87 114 871.000000
12.40799999 -9.36649990 -0.24200000 96 87 114 850.000000
12.40750027 -9.36600018 -0.24100000 96 87 114 967.000000
12.41625023 -9.37250042 -0.24025001 96 87 114 1000.000000
12.41100025 -9.36874962 -0.23899999 87 82 102 1071.000000
12.40775013 -9.36625004 -0.23800001 87 82 102 1207.000000
12.40775013 -9.36625004 -0.23700000 87 82 102 1457.000000
12.41399956 -9.37100029 -0.23600000 87 82 102 1703.000000
12.40550041 -9.36450005 -0.23500000 87 82 102 2507.000000
12.40699959 -9.36549950 -0.23400000 87 82 102 3935.000000
12.40524960 -9.36425018 -0.23300000 94 92 105 6425.000000
12.40649986 -9.36524963 -0.23199999 94 92 105 9625.000000
12.40649986 -9.36524963 -0.23100001 94 92 105 14167.000000
12.40600014 -9.36499977 -0.23000000 94 92 105 18703.000000
12.40674973 -9.36549950 -0.22900000 94 92 105 21682.000000
12.40625000 -9.36499977 -0.22800000 94 92 105 23382.000000
12.40474987 -9.36400032 -0.22700000 94 92 105 24335.000000
12.40499973 -9.36425018 -0.22600000 128 131 136 25371.000000
12.40499973 -9.36400032 -0.22499999 128 131 136 25671.000000
12.40400028 -9.36349964 -0.22400001 128 131 136 26607.000000
12.40474987 -9.36400032 -0.22300000 128 131 136 26392.000000
12.40474987 -9.36400032 -0.22200000 128 131 136 26610.000000
12.40174961 -9.36174965 -0.22100000 128 131 136 25264.000000
12.40450001 -9.36375046 -0.22000000 166 175 170 22114.000000
12.40400028 -9.36324978 -0.21900000 166 175 170 15660.000000
12.40200043 -9.36174965 -0.21799999 166 175 170 8700.000000
12.40349960 -9.36299992 -0.21699999 166 175 170 4150.000000
12.40200043 -9.36174965 -0.21600001 166 175 170 2146.000000
12.40575027 -9.36575031 -0.31750000 163 180 172 2596.000000
12.40450001 -9.36499977 -0.31625000 190 210 199 4910.000000
12.40600014 -9.36600018 -0.31549999 190 210 199 6985.000000
12.40775013 -9.36725044 -0.31450000 190 210 199 8235.000000
12.40824986 -9.36775017 -0.31349999 190 210 199 8728.000000
12.40824986 -9.36750031 -0.31250000 190 210 199 8350.000000
12.40725040 -9.36699963 -0.31150001 190 210 199 6732.000000
12.40775013 -9.36725044 -0.31050000 160 180 168 4757.000000
12.40575027 -9.36575031 -0.30950001 160 180 168 2778.000000
12.40875053 -9.36800003 -0.30849999 160 180 168 1675.000000
12.41749954 -9.37475014 -0.30774999 160 180 168 1203.000000
12.42724991 -9.38199997 -0.30700001 160 180 168 1325.000000
12.42724991 -9.38199997 -0.30599999 160 180 168 2271.000000
12.43200016 -9.38549995 -0.30500001 130 151 136 4478.000000
12.43325043 -9.38650036 -0.30399999 130 151 136 8360.000000
12.43200016 -9.38549995 -0.30300000 130 151 136 13585.000000
12.43099976 -9.38500023 -0.30199999 130 151 136 18535.000000
12.43149948 -9.38525009 -0.30100000 130 151 136 22025.000000
12.43074989 -9.38475037 -0.30000001 130 151 136 24217.000000
12.43099976 -9.38500023 -0.29899999 130 151 136 24578.000000
12.43025017 -9.38424969 -0.29800001 145 163 151 24039.000000
12.42975044 -9.38399982 -0.29699999 145 163 151 23689.000000
12.43124962 -9.38500023 -0.29600000 145 163 151 23357.000000
12.42899990 -9.38350010 -0.29499999 145 163 151 20503.000000
12.42949963 -9.38374996 -0.29400000 145 163 151 14357.000000
12.42825031 -9.38274956 -0.29300001 145 163 151 9057.000000
12.42774963 -9.38249969 -0.29200000 152 165 158 5003.000000
12.42799950 -9.38274956 -0.29100001 152 165 158 3189.000000
12.42525005 -9.38049984 -0.28999999 152 165 158 1846.000000
12.43074989 -9.38475037 -0.28900000 152 165 158 1382.000000
12.43175030 -9.38549995 -0.28799999 152 165 158 1185.000000
12.42749977 -9.38224983 -0.28700000 152 165 158 1082.000000
12.42449951 -9.38000011 -0.28600001 152 165 158 942.000000
12.42549992 -9.38074970 -0.28500000 124 132 134 1007.000000
12.42875004 -9.38325024 -0.28400001 124 132 134 960.000000
12.42599964 -9.38125038 -0.28299999 124 132 134 939.000000
12.42975044 -9.38399982 -0.28200001 124 132 134 899.000000
12.43025017 -9.38424969 -0.28099999 124 132 134 967.000000
12.42475033 -9.38024998 -0.28000000 124 132 134 928.000000
12.41950035 -9.37625027 -0.27875000 90 92 105 864.000000
12.42749977 -9.38224983 -0.27800000 90 92 105 828.000000
12.41349983 -9.37174988 -0.27649999 90 92 105 771.000000
12.41975021 -9.37650013 -0.27575001 90 92 105 682.000000
12.41899967 -9.37600040 -0.27474999 90 92 105 750.000000
12.42700005 -9.38199997 -0.27399999 90 92 105 821.000000
12.41724968 -9.37475014 -0.27274999 90 92 105 885.000000
12.42150021 -9.37775040 -0.27175000 84 82 106 853.000000
12.42249966 -9.37874985 -0.27074999 84 82 106 785.000000
12.42574978 -9.38099957 -0.27000001 84 82 106 817.000000
12.42475033 -9.38024998 -0.26875001 84 82 106 821.000000
12.42224979 -9.37849998 -0.26774999 84 82 106 910.000000
12.41600037 -9.37349987 -0.26675001 84 82 106 899.000000
12.42099953 -9.37749958 -0.26574999 93 86 120 892.000000
12.41849995 -9.37549973 -0.26475000 93 86 120 882.000000
12.41775036 -9.37500000 -0.26374999 93 86 120 889.000000
12.41975021 -9.37650013 -0.26275000 93 86 120 846.000000
12.41849995 -9.37549973 -0.26175001 93 86 120 842.000000
12.41724968 -9.37450027 -0.26075000 93 86 120 828.000000
12.42399979 -9.37975025 -0.25975001 93 86 120 821.000000
12.40674973 -9.36674976 -0.25850001 92 82 119 764.000000
12.41899967 -9.37574959 -0.25775000 92 82 119 732.000000
12.41549969 -9.37325001 -0.25650001 92 82 119 775.000000
12.41975021 -9.37650013 -0.25575000 92 82 119 814.000000
12.41125011 -9.36999989 -0.25450000 92 82 119 764.000000
12.41950035 -9.37625027 -0.25375000 92 82 119 785.000000
12.40900040 -9.36824989 -0.25250000 95 84 116 692.000000
12.41125011 -9.36999989 -0.25150001 95 84 116 707.000000
12.42475033 -9.38024998 -0.25075001 95 84 116 739.000000
12.41300011 -9.37125015 -0.24950001 95 84 116 750.000000
12.40250015 -9.36349964 -0.24850000 95 84 116 828.000000
12.40925026 -9.36849976 -0.24750000 95 84 116 810.000000
12.41225052 -9.37075043 -0.24650000 95 84 116 835.000000
12.41049957 -9.36950016 -0.24550000 96 87 114 796.000000
12.40824986 -9.36775017 -0.24450000 96 87 114 864.000000
12.40925026 -9.36849976 -0.24349999 96 87 114 882.000000
12.40600014 -9.36600018 -0.24250001 96 87 114 864.000000
12.40550041 -9.36549950 -0.24150001 96 87 114 889.000000
12.40625000 -9.36625004 -0.24050000 96 87 114 925.000000
12.40974998 -9.36900043 -0.23950000 87 82 102 978.000000
12.41499996 -9.37275028 -0.23875000 87 82 102 982.000000
12.40400028 -9.36450005 -0.23750000 87 82 102 1157.000000
12.41324997 -9.37125015 -0.23649999 87 82 102 1382.000000
12.40775013 -9.36725044 -0.23549999 87 82 102 1653.000000
12.40674973 -9.36649990 -0.23450001 87 82 102 2078.000000
12.40600014 -9.36600018 -0.23350000 87 82 102 3121.000000
12.40450001 -9.36474991 -0.23250000 94 92 105 4985.000000
12.40400028 -9.36450005 -0.23150000 94 92 105 8453.000000
12.40649986 -9.36625004 -0.23050000 94 92 105 12860.000000
12.40699959 -9.36674976 -0.22950000 94 92 105 17742.000000
12.40575027 -9.36575031 -0.22849999 94 92 105 20525.000000
12.40524960 -9.36549950 -0.22750001 94 92 105 23050.000000
12.40450001 -9.36474991 -0.22650000 128 131 136 23892.000000
12.40450001 -9.36474991 -0.22550000 128 131 136 25274.000000
12.40400028 -9.36450005 -0.22450000 128 131 136 25974.000000
12.40524960 -9.36524963 -0.22350000 128 131 136 26292.000000
12.40425014 -9.36450005 -0.22250000 128 131 136 26392.000000
12.40275002 -9.36349964 -0.22149999 128 131 136 25867.000000
12.40400028 -9.36425018 -0.22050001 128 131 136 24157.000000
12.40299988 -9.36349964 -0.21950001 166 175 170 18485.000000
12.40374947 -9.36425018 -0.21850000 166 175 170 11185.000000
12.40250015 -9.36349964 -0.21750000 166 175 170 5464.000000
12.40174961 -9.36275005 -0.21650000 166 175 170 2892.000000
12.40024948 -9.36174965 -0.21525000 166 175 170 1292.000000
12.40824986 -9.36925030 -0.31799999 163 180 172 1225.000000
12.40425014 -9.36625004 -0.31700000 190 210 199 2525.000000
12.40550041 -9.36699963 -0.31600001 190 210 199 4589.000000
12.40575027 -9.36725044 -0.31500000 190 210 199 6525.000000
12.40474987 -9.36649990 -0.31400001 190 210 199 7435.000000
12.40649986 -9.36775017 -0.31299999 190 210 199 7675.000000
12.40674973 -9.36800003 -0.31200001 190 210 199 7446.000000
12.40600014 -9.36750031 -0.31099999 190 210 199 6471.000000
12.40600014 -9.36750031 -0.31000000 160 180 168 4464.000000
12.40900040 -9.36975002 -0.30899999 160 180 168 2892.000000
12.40999985 -9.37049961 -0.30800000 160 180 168 1617.000000
12.42125034 -9.37899971 -0.30724999 160 180 168 1203.000000
12.42000008 -9.37800026 -0.30625001 160 180 168 1232.000000
12.42700005 -9.38325024 -0.30550000 160 180 168 2010.000000
12.43000031 -9.38549995 -0.30450001 130 151 136 3992.000000
12.43099976 -9.38624954 -0.30350000 130 151 136 7278.000000
12.43175030 -9.38675022 -0.30250001 130 151 136 12646.000000
12.43175030 -9.38675022 -0.30149999 130 151 136 17410.000000
12.43225002 -9.38724995 -0.30050001 130 151 136 22403.000000
12.43099976 -9.38650036 -0.29949999 130 151 136 23867.000000
12.43025017 -9.38574982 -0.29850000 145 163 151 23864.000000
12.42949963 -9.38525009 -0.29750001 145 163 151 23107.000000
12.43074989 -9.38624954 -0.29650000 145 163 151 20771.000000
12.42899990 -9.38475037 -0.29550001 145 163 151 16996.000000
12.42850018 -9.38450050 -0.29449999 145 163 151 10628.000000
12.42675018 -9.38325024 -0.29350001 145 163 151 6196.000000
12.42825031 -9.38424969 -0.29249999 145 163 151 3603.000000
12.42799950 -9.38399982 -0.29150000 152 165 158 2335.000000
12.42675018 -9.38325024 -0.29049999 152 165 158 1475.000000
12.43200016 -9.38700008 -0.28950000 152 165 158 1275.000000
12.42500019 -9.38175011 -0.28850001 152 165 158 1096.000000
12.42625046 -9.38274956 -0.28749999 152 165 158 1046.000000
12.43175030 -9.38675022 -0.28674999 152 165 158 946.000000
12.42224979 -9.37975025 -0.28549999 152 165 158 957.000000
12.42724991 -9.38350010 -0.28450000 124 132 134 939.000000
12.43299961 -9.38774967 -0.28375000 124 132 134 899.000000
12.42424965 -9.38125038 -0.28250000 124 132 134 882.000000
12.42949963 -9.38525009 -0.28150001 124 132 134 928.000000
12.41925049 -9.37724972 -0.28025001 124 132 134 985.000000
12.42675018 -9.38300037 -0.27950001 124 132 134 925.000000
12.42924976 -9.38500023 -0.27849999 90 92 105 850.000000
12.42024994 -9.37800026 -0.27724999 90 92 105 725.000000
12.41849995 -9.37674999 -0.27625000 90 92 105 710.000000
12.41049957 -9.37075043 -0.27524999 90 92 105 746.000000
12.42125034 -9.37899971 -0.27450001 90 92 105 800.000000
12.42449951 -9.38150024 -0.27350000 90 92 105 857.000000
12.42700005 -9.38325024 -0.27250001 84 82 106 839.000000
12.42074966 -9.37849998 -0.27125001 84 82 106 882.000000
12.42850018 -9.38450050 -0.27050000 84 82 106 864.000000
12.41775036 -9.37625027 -0.26925001 84 82 106 832.000000
12.41625023 -9.37524986 -0.26824999 84 82 106 882.000000
12.41549969 -9.37450027 -0.26725000 84 82 106 885.000000
12.42525005 -9.38199997 -0.26650000 84 82 106 903.000000
12.41275024 -9.37250042 -0.26525000 93 86 120 907.000000
12.41199970 -9.37199974 -0.26425001 93 86 120 867.000000
12.41575050 -9.37475014 -0.26324999 93 86 120 864.000000
12.41674995 -9.37549973 -0.26225001 93 86 120 825.000000
12.41899967 -9.37724972 -0.26124999 93 86 120 860.000000
12.42399979 -9.38099957 -0.26025000 93 86 120 846.000000
12.40974998 -9.37024975 -0.25900000 92 82 119 807.000000
12.41450024 -9.37374973 -0.25825000 92 82 119 760.000000
12.41475010 -9.37399960 -0.25725001 92 82 119 750.000000
12.41425037 -9.37349987 -0.25624999 92 82 119 782.000000
12.41425037 -9.37349987 -0.25525001 92 82 119 807.000000
12.40974998 -9.37024975 -0.25400001 92 82 119 764.000000
12.41450024 -9.37374973 -0.25325000 92 82 119 742.000000
12.42074966 -9.37874985 -0.25224999 95 84 116 753.000000
12.40849972 -9.36925030 -0.25099999 95 84 116 796.000000
12.41600037 -9.37500000 -0.25025001 95 84 116 832.000000
12.40324974 -9.36524963 -0.24900000 95 84 116 907.000000
12.41625023 -9.37500000 -0.24824999 95 84 116 899.000000
12.41075039 -9.37100029 -0.24699999 95 84 116 857.000000
12.42150021 -9.37899971 -0.24625000 96 87 114 882.000000
12.41300011 -9.37250042 -0.24500000 96 87 114 910.000000
12.40699959 -9.36824989 -0.24400000 96 87 114 925.000000
12.40750027 -9.36849976 -0.24300000 96 87 114 907.000000
12.40775013 -9.36874962 -0.24200000 96 87 114 910.000000
12.40875053 -9.36950016 -0.24100000 96 87 114 907.000000
12.40600014 -9.36750031 -0.23999999 96 87 114 875.000000
12.40600014 -9.36750031 -0.23899999 87 82 102 896.000000
12.40324974 -9.36524963 -0.23800001 87 82 102 975.000000
12.40299988 -9.36524963 -0.23700000 87 82 102 1035.000000
12.40550041 -9.36699963 -0.23600000 87 82 102 1167.000000
12.40974998 -9.37024975 -0.23500000 87 82 102 1353.000000
12.40324974 -9.36524963 -0.23400000 87 82 102 1810.000000
12.40600014 -9.36750031 -0.23300000 94 92 105 2489.000000
12.40474987 -9.36649990 -0.23199999 94 92 105 4067.000000
12.40725040 -9.36824989 -0.23100001 94 92 105 6453.000000
12.40600014 -9.36750031 -0.23000000 94 92 105 10642.000000
12.40499973 -9.36674976 -0.22900000 94 92 105 15014.000000
12.40499973 -9.36674976 -0.22800000 94 92 105 19253.000000
12.40499973 -9.36649990 -0.22700000 94 92 105 21750.000000
12.40550041 -9.36699963 -0.22600000 128 131 136 23635.000000
12.40400028 -9.36600018 -0.22499999 128 131 136 24892.000000
12.40299988 -9.36524963 -0.22400001 128 131 136 25671.000000
12.40324974 -9.36524963 -0.22300000 128 131 136 25671.000000
12.40200043 -9.36450005 -0.22200000 128 131 136 24982.000000
12.40349960 -9.36549950 -0.22100000 128 131 136 21464.000000
12.40174961 -9.36425018 -0.22000000 166 175 170 14807.000000
12.40124989 -9.36375046 -0.21900000 166 175 170 8489.000000
12.39875031 -9.36199951 -0.21799999 166 175 170 4196.000000
12.40075016 -9.36349964 -0.21699999 166 175 170 2039.000000
12.39799976 -9.36250019 -0.31725001 163 180 172 1375.000000
12.40575027 -9.36824989 -0.31650001 190 210 199 3075.000000
12.40550041 -9.36824989 -0.31549999 190 210 199 4971.000000
12.40450001 -9.36750031 -0.31450000 190 210 199 6696.000000
12.40374947 -9.36699963 -0.31349999 190 210 199 7328.000000
12.40524960 -9.36800003 -0.31250000 190 210 199 7692.000000
12.40474987 -9.36775017 -0.31150001 190 210 199 7278.000000
12.40649986 -9.36900043 -0.31050000 160 180 168 6307.000000
12.40575027 -9.36824989 -0.30950001 160 180 168 4785.000000
12.40649986 -9.36900043 -0.30849999 160 180 168 2878.000000
12.40950012 -9.37125015 -0.30750000 160 180 168 1696.000000
12.41374969 -9.37450027 -0.30675000 160 180 168 1164.000000
12.42399979 -9.38224983 -0.30599999 160 180 168 1214.000000
12.42249966 -9.38099957 -0.30500001 130 151 136 1867.000000
12.43000031 -9.38675022 -0.30399999 130 151 136 3549.000000
12.43074989 -9.38724995 -0.30300000 130 151 136 6664.000000
12.43149948 -9.38774967 -0.30225000 130 151 136 10721.000000
12.43149948 -9.38774967 -0.30125001 130 151 136 16742.000000
12.43099976 -9.38749981 -0.30024999 130 151 136 20771.000000
12.42875004 -9.38574982 -0.29899999 130 151 136 22396.000000
12.42899990 -9.38599968 -0.29800001 145 163 151 22475.000000
12.43050003 -9.38700008 -0.29725000 145 163 151 19589.000000
12.42899990 -9.38599968 -0.29600000 145 163 151 14614.000000
12.42875004 -9.38574982 -0.29499999 145 163 151 8746.000000
12.42899990 -9.38599968 -0.29400000 145 163 151 5096.000000
12.42424965 -9.38249969 -0.29300001 145 163 151 3110.000000
12.42924976 -9.38624954 -0.29200000 152 165 158 2067.000000
12.42525005 -9.38325024 -0.29100001 152 165 158 1482.000000
12.42949963 -9.38624954 -0.28999999 152 165 158 1257.000000
12.42625046 -9.38399982 -0.28900000 152 165 158 1082.000000
12.43675041 -9.39175034 -0.28825000 152 165 158 957.000000
12.42675018 -9.38424969 -0.28700000 152 165 158 928.000000
12.42975044 -9.38650036 -0.28600001 152 165 158 946.000000
12.42399979 -9.38224983 -0.28500000 124 132 134 896.000000
12.42975044 -9.38650036 -0.28400001 124 132 134 867.000000
12.42199993 -9.38074970 -0.28275001 124 132 134 910.000000
12.42599964 -9.38374996 -0.28200001 124 132 134 910.000000
12.41874981 -9.37825012 -0.28075001 124 132 134 907.000000
12.42424965 -9.38249969 -0.28000000 124 132 134 960.000000
12.42099953 -9.37975025 -0.27875000 90 92 105 846.000000
12.41874981 -9.37825012 -0.27774999 90 92 105 839.000000
12.42175007 -9.38049984 -0.27675000 90 92 105 721.000000
12.42125034 -9.38024998 -0.27575001 90 92 105 785.000000
12.42074966 -9.37975025 -0.27474999 90 92 105 778.000000
12.42949963 -9.38624954 -0.27399999 90 92 105 778.000000
12.42774963 -9.38500023 -0.27300000 90 92 105 850.000000
12.41450024 -9.37500000 -0.27175000 84 82 106 860.000000
12.41549969 -9.37574959 -0.27074999 84 82 106 864.000000
12.41950035 -9.37874985 -0.26975000 84 82 106 867.000000
12.42700005 -9.38450050 -0.26899999 84 82 106 889.000000
12.41849995 -9.37800026 -0.26774999 84 82 106 807.000000
12.42000008 -9.37924957 -0.26675001 84 82 106 842.000000
12.42399979 -9.38224983 -0.26574999 93 86 120 850.000000
12.41825008 -9.37800026 -0.26475000 93 86 120 846.000000
12.41450024 -9.37524986 -0.26350001 93 86 120 871.000000
12.41699982 -9.37699986 -0.26275000 93 86 120 792.000000
12.42449951 -9.38274956 -0.26175001 93 86 120 810.000000
12.41374969 -9.37450027 -0.26050001 93 86 120 846.000000
12.42424965 -9.38249969 -0.25975001 93 86 120 899.000000
12.41425037 -9.37500000 -0.25874999 92 82 119 832.000000
12.40900040 -9.37075043 -0.25749999 92 82 119 828.000000
12.41300011 -9.37374973 -0.25650001 92 82 119 782.000000
12.41324997 -9.37425041 -0.25549999 92 82 119 789.000000
12.41475010 -9.37524986 -0.25475001 92 82 119 842.000000
12.41650009 -9.37650013 -0.25375000 92 82 119 800.000000
12.41199970 -9.37300014 -0.25250000 95 84 116 821.000000
12.41324997 -9.37425041 -0.25174999 95 84 116 775.000000
12.42024994 -9.37950039 -0.25075001 95 84 116 853.000000
12.41874981 -9.37825012 -0.24975000 95 84 116 853.000000
12.41549969 -9.37574959 -0.24875000 95 84 116 875.000000
12.39875031 -9.36299992 -0.24725001 95 84 116 914.000000
12.40100002 -9.36474991 -0.24650000 95 84 116 878.000000
12.41174984 -9.37300014 -0.24575000 96 87 114 871.000000
12.41024971 -9.37174988 -0.24450000 96 87 114 810.000000
12.40999985 -9.37150002 -0.24349999 96 87 114 882.000000
12.41125011 -9.37250042 -0.24275000 96 87 114 903.000000
12.40900040 -9.37075043 -0.24175000 96 87 114 832.000000
12.40900040 -9.37075043 -0.24075000 96 87 114 885.000000
12.41100025 -9.37224960 -0.23975000 87 82 102 864.000000
12.40299988 -9.36625004 -0.23850000 87 82 102 885.000000
12.40725040 -9.36950016 -0.23750000 87 82 102 910.000000
12.40875053 -9.37075043 -0.23649999 87 82 102 1092.000000
12.40999985 -9.37150002 -0.23575000 87 82 102 1167.000000
12.40925026 -9.37100029 -0.23450001 87 82 102 1257.000000
12.39999962 -9.36400032 -0.23350000 87 82 102 1725.000000
12.40050030 -9.36450005 -0.23250000 94 92 105 2460.000000
12.40275002 -9.36600018 -0.23150000 94 92 105 3839.000000
12.40425014 -9.36725044 -0.23050000 94 92 105 6196.000000
12.40474987 -9.36750031 -0.22950000 94 92 105 9557.000000
12.40550041 -9.36824989 -0.22849999 94 92 105 14324.000000
12.40374947 -9.36674976 -0.22750001 94 92 105 18650.000000
12.40575027 -9.36824989 -0.22650000 128 131 136 21825.000000
12.40400028 -9.36699963 -0.22550000 128 131 136 23807.000000
12.40299988 -9.36625004 -0.22450000 128 131 136 25082.000000
12.40275002 -9.36600018 -0.22350000 128 131 136 25771.000000
12.40324974 -9.36625004 -0.22250000 128 131 136 25771.000000
12.40250015 -9.36600018 -0.22149999 128 131 136 21967.000000
12.40324974 -9.36649990 -0.22050001 128 131 136 15257.000000
12.40275002 -9.36600018 -0.21950001 166 175 170 8200.000000
12.40200043 -9.36549950 -0.21850000 166 175 170 4064.000000
12.40024948 -9.36425018 -0.21750000 166 175 170 2153.000000
12.40674973 -9.37049961 -0.31700000 190 210 199 1303.000000
12.40275002 -9.36750031 -0.31600001 190 210 199 2539.000000
12.40625000 -9.37024975 -0.31500000 190 210 199 4632.000000
12.40450001 -9.36874962 -0.31400001 190 210 199 6510.000000
12.40425014 -9.36874962 -0.31299999 190 210 199 7174.000000
12.40474987 -9.36900043 -0.31200001 190 210 199 7407.000000
12.40324974 -9.36775017 -0.31099999 190 210 199 7435.000000
12.40400028 -9.36824989 -0.31000000 160 180 168 6985.000000
12.40699959 -9.37075043 -0.30899999 160 180 168 5092.000000
12.40575027 -9.36975002 -0.30800000 160 180 168 3289.000000
12.40750027 -9.37125015 -0.30700001 160 180 168 1910.000000
12.41174984 -9.37425041 -0.30625001 160 180 168 1275.000000
12.42374992 -9.38325024 -0.30550000 160 180 168 1089.000000
12.42700005 -9.38574982 -0.30450001 130 151 136 1600.000000
12.42749977 -9.38624954 -0.30350000 130 151 136 2842.000000
12.43124962 -9.38899994 -0.30250001 130 151 136 5260.000000
12.43099976 -9.38875008 -0.30149999 130 151 136 9471.000000
12.43050003 -9.38825035 -0.30050001 130 151 136 14296.000000
12.43000031 -9.38800049 -0.29949999 130 151 136 17978.000000
12.43074989 -9.38875008 -0.29850000 145 163 151 18282.000000
12.42850018 -9.38675022 -0.29750001 145 163 151 15700.000000
12.42799950 -9.38650036 -0.29650000 145 163 151 11010.000000
12.42724991 -9.38599968 -0.29550001 145 163 151 6585.000000
12.42525005 -9.38450050 -0.29449999 145 163 151 4046.000000
12.42724991 -9.38599968 -0.29350001 145 163 151 2396.000000
12.42399979 -9.38350010 -0.29249999 145 163 151 1625.000000
12.42525005 -9.38424969 -0.29150000 152 165 158 1335.000000
12.42774963 -9.38624954 -0.29049999 152 165 158 1196.000000
12.42899990 -9.38724995 -0.28950000 152 165 158 1067.000000
12.42749977 -9.38624954 -0.28850001 152 165 158 964.000000
12.42675018 -9.38549995 -0.28749999 152 165 158 925.000000
12.42350006 -9.38300037 -0.28650001 152 165 158 889.000000
12.42700005 -9.38574982 -0.28549999 124 132 134 910.000000
12.42125034 -9.38150024 -0.28450000 124 132 134 882.000000
12.42150021 -9.38150024 -0.28349999 124 132 134 878.000000
12.41925049 -9.38000011 -0.28250000 124 132 134 921.000000
12.43050003 -9.38825035 -0.28174999 124 132 134 864.000000
12.42099953 -9.38099957 -0.28049999 124 132 134 910.000000
12.42424965 -9.38374996 -0.27950001 124 132 134 910.000000
12.42000008 -9.38049984 -0.27825001 90 92 105 782.000000
12.42175007 -9.38175011 -0.27750000 90 92 105 803.000000
12.41849995 -9.37924957 -0.27625000 90 92 105 789.000000
12.41749954 -9.37849998 -0.27524999 90 92 105 789.000000
12.42500019 -9.38399982 -0.27450001 90 92 105 800.000000
12.41425037 -9.37600040 -0.27325001 90 92 105 850.000000
12.41674995 -9.37775040 -0.27225000 90 92 105 850.000000
12.41225052 -9.37450027 -0.27125001 84 82 106 842.000000
12.41049957 -9.37325001 -0.27024999 84 82 106 885.000000
12.42574978 -9.38475037 -0.26949999 84 82 106 800.000000
12.42325020 -9.38300037 -0.26850000 84 82 106 832.000000
12.41899967 -9.37975025 -0.26725000 84 82 106 746.000000
12.41225052 -9.37450027 -0.26625001 84 82 106 850.000000
12.41100025 -9.37349987 -0.26499999 93 86 120 846.000000
12.42350006 -9.38300037 -0.26449999 93 86 120 867.000000
12.40999985 -9.37275028 -0.26300001 93 86 120 828.000000
12.41549969 -9.37699986 -0.26225001 93 86 120 807.000000
12.41775036 -9.37874985 -0.26124999 93 86 120 878.000000
12.42150021 -9.38150024 -0.26025000 93 86 120 846.000000
12.40925026 -9.37224960 -0.25900000 92 82 119 832.000000
12.41975021 -9.38024998 -0.25825000 92 82 119 789.000000
12.41625023 -9.37775040 -0.25725001 92 82 119 792.000000
12.41300011 -9.37500000 -0.25624999 92 82 119 771.000000
12.42224979 -9.38224983 -0.25525001 92 82 119 746.000000
12.40999985 -9.37300014 -0.25400001 92 82 119 807.000000
12.41650009 -9.37775040 -0.25325000 92 82 119 810.000000
12.41349983 -9.37549973 -0.25224999 95 84 116 807.000000
12.40925026 -9.37224960 -0.25099999 95 84 116 825.000000
12.41149998 -9.37399960 -0.25000000 95 84 116 771.000000
12.42650032 -9.38525009 -0.24950001 95 84 116 807.000000
12.41300011 -9.37524986 -0.24824999 95 84 116 871.000000
12.41125011 -9.37374973 -0.24699999 95 84 116 835.000000
12.41874981 -9.37950039 -0.24625000 96 87 114 832.000000
12.41300011 -9.37524986 -0.24500000 96 87 114 832.000000
12.40400028 -9.36824989 -0.24400000 96 87 114 885.000000
12.41049957 -9.37325001 -0.24300000 96 87 114 896.000000
12.40849972 -9.37174988 -0.24200000 96 87 114 825.000000
12.40974998 -9.37275028 -0.24100000 96 87 114 832.000000
12.41149998 -9.37399960 -0.23999999 96 87 114 807.000000
12.40299988 -9.36750031 -0.23899999 87 82 102 796.000000
12.39900017 -9.36450005 -0.23800001 87 82 102 932.000000
12.40225029 -9.36699963 -0.23700000 87 82 102 957.000000
12.39474964 -9.36149979 -0.23575000 87 82 102 1014.000000
12.40200043 -9.36699963 -0.23500000 87 82 102 1039.000000
12.40524960 -9.36925030 -0.23400000 87 82 102 1150.000000
12.40200043 -9.36699963 -0.23300000 94 92 105 1460.000000
12.40499973 -9.36925030 -0.23199999 94 92 105 1939.000000
12.40349960 -9.36800003 -0.23100001 94 92 105 3035.000000
12.40374947 -9.36824989 -0.23000000 94 92 105 4775.000000
12.40450001 -9.36874962 -0.22900000 94 92 105 7403.000000
12.40550041 -9.36950016 -0.22800000 94 92 105 11607.000000
12.40349960 -9.36800003 -0.22700000 94 92 105 16614.000000
12.40374947 -9.36800003 -0.22600000 128 131 136 21603.000000
12.40400028 -9.36849976 -0.22499999 128 131 136 25574.000000
12.40324974 -9.36800003 -0.22400001 128 131 136 26939.000000
12.40324974 -9.36775017 -0.22300000 128 131 136 25274.000000
12.40225029 -9.36699963 -0.22200000 128 131 136 19482.000000
12.40100002 -9.36625004 -0.22100000 128 131 136 11564.000000
12.39925003 -9.36474991 -0.22000000 166 175 170 5821.000000
12.39925003 -9.36474991 -0.21900000 166 175 170 3039.000000
12.39624977 -9.36250019 -0.21799999 166 175 170 1478.000000
12.40575027 -9.37075043 -0.31650001 190 210 199 1396.000000
12.40600014 -9.37100029 -0.31549999 190 210 199 3014.000000
12.40425014 -9.36975002 -0.31450000 190 210 199 4978.000000
12.40349960 -9.36925030 -0.31349999 190 210 199 6732.000000
12.40374947 -9.36925030 -0.31250000 190 210 199 7407.000000
12.40349960 -9.36925030 -0.31150001 190 210 199 7692.000000
12.40374947 -9.36925030 -0.31050000 160 180 168 7921.000000
12.40474987 -9.36999989 -0.30950001 160 180 168 6821.000000
12.40450001 -9.36999989 -0.30849999 160 180 168 5178.000000
12.40649986 -9.37150002 -0.30750000 160 180 168 3382.000000
12.40600014 -9.37100029 -0.30649999 160 180 168 2075.000000
12.40900040 -9.37325001 -0.30550000 160 180 168 1253.000000
12.42150021 -9.38274956 -0.30500001 130 151 136 1089.000000
12.42825031 -9.38774967 -0.30399999 130 151 136 1364.000000
12.42975044 -9.38899994 -0.30300000 130 151 136 2475.000000
12.42899990 -9.38850021 -0.30199999 130 151 136 4517.000000
12.42899990 -9.38850021 -0.30100000 130 151 136 7989.000000
12.42949963 -9.38875008 -0.30000001 130 151 136 11953.000000
12.43000031 -9.38924980 -0.29925001 130 151 136 13992.000000
12.42949963 -9.38875008 -0.29824999 145 163 151 12617.000000
12.42749977 -9.38724995 -0.29699999 145 163 151 8585.000000
12.42525005 -9.38574982 -0.29600000 145 163 151 5260.000000
12.42399979 -9.38450050 -0.29499999 145 163 151 3289.000000
12.42549992 -9.38574982 -0.29400000 145 163 151 2092.000000
12.42399979 -9.38475037 -0.29300001 145 163 151 1446.000000
12.42724991 -9.38700008 -0.29200000 152 165 158 1214.000000
12.42374992 -9.38450050 -0.29100001 152 165 158 1075.000000
12.41899967 -9.38099957 -0.28975001 152 165 158 1007.000000
12.42675018 -9.38675022 -0.28900000 152 165 158 982.000000
12.42799950 -9.38774967 -0.28799999 152 165 158 896.000000
12.42574978 -9.38599968 -0.28700000 152 165 158 846.000000
12.42850018 -9.38800049 -0.28600001 152 165 158 907.000000
12.42700005 -9.38700008 -0.28500000 124 132 134 867.000000
12.41625023 -9.37874985 -0.28375000 124 132 134 878.000000
12.42325020 -9.38399982 -0.28299999 124 132 134 910.000000
12.42424965 -9.38475037 -0.28200001 124 132 134 910.000000
12.41399956 -9.37724972 -0.28075001 124 132 134 899.000000
12.43424988 -9.39249992 -0.28025001 124 132 134 846.000000
12.43099976 -9.39000034 -0.27900001 90 92 105 775.000000
12.41650009 -9.37899971 -0.27774999 90 92 105 767.000000
12.42700005 -9.38700008 -0.27700001 90 92 105 771.000000
12.41899967 -9.38074970 -0.27575001 90 92 105 789.000000
12.41950035 -9.38125038 -0.27474999 90 92 105 739.000000
12.41225052 -9.37574959 -0.27350000 90 92 105 789.000000
12.40925026 -9.37349987 -0.27250001 90 92 105 753.000000
12.41425037 -9.37749958 -0.27175000 84 82 106 846.000000
12.41874981 -9.38074970 -0.27074999 84 82 106 807.000000
12.42424965 -9.38475037 -0.27000001 84 82 106 867.000000
12.41125011 -9.37500000 -0.26850000 84 82 106 782.000000
12.42049980 -9.38199997 -0.26774999 84 82 106 739.000000
12.41800022 -9.38024998 -0.26675001 84 82 106 725.000000
12.41049957 -9.37450027 -0.26550001 93 86 120 803.000000
12.41250038 -9.37600040 -0.26475000 93 86 120 828.000000
12.42599964 -9.38624954 -0.26400000 93 86 120 771.000000
12.41650009 -9.37899971 -0.26275000 93 86 120 810.000000
12.41724968 -9.37975025 -0.26175001 93 86 120 860.000000
12.41374969 -9.37674999 -0.26075000 93 86 120 828.000000
12.41049957 -9.37450027 -0.25950000 93 86 120 825.000000
12.41800022 -9.38024998 -0.25874999 92 82 119 764.000000
12.40950012 -9.37374973 -0.25749999 92 82 119 725.000000
12.41825008 -9.38049984 -0.25674999 92 82 119 785.000000
12.41650009 -9.37899971 -0.25575000 92 82 119 742.000000
12.40999985 -9.37399960 -0.25450000 92 82 119 796.000000
12.40750027 -9.37224960 -0.25350001 92 82 119 775.000000
12.40474987 -9.36999989 -0.25250000 95 84 116 735.000000
12.40299988 -9.36874962 -0.25150001 95 84 116 846.000000
12.40524960 -9.37049961 -0.25049999 95 84 116 867.000000
12.41600037 -9.37874985 -0.24975000 95 84 116 842.000000
12.41324997 -9.37650013 -0.24875000 95 84 116 825.000000
12.41024971 -9.37425041 -0.24775000 95 84 116 885.000000
12.40625000 -9.37125015 -0.24650000 95 84 116 832.000000
12.41425037 -9.37724972 -0.24575000 96 87 114 825.000000
12.40775013 -9.37250042 -0.24450000 96 87 114 857.000000
12.41575050 -9.37849998 -0.24375001 96 87 114 892.000000
12.41425037 -9.37724972 -0.24275000 96 87 114 907.000000
12.41049957 -9.37425041 -0.24175000 96 87 114 821.000000
12.40824986 -9.37275028 -0.24050000 96 87 114 789.000000
12.41100025 -9.37475014 -0.23975000 87 82 102 807.000000
12.40925026 -9.37349987 -0.23875000 87 82 102 853.000000
12.40750027 -9.37224960 -0.23774999 87 82 102 871.000000
12.41024971 -9.37425041 -0.23675001 87 82 102 889.000000
12.40900040 -9.37349987 -0.23575000 87 82 102 953.000000
12.40550041 -9.37049961 -0.23450001 87 82 102 1064.000000
12.40450001 -9.36975002 -0.23350000 87 82 102 1225.000000
12.39900017 -9.36575031 -0.23250000 94 92 105 1432.000000
12.40374947 -9.36925030 -0.23150000 94 92 105 1760.000000
12.40499973 -9.37024975 -0.23050000 94 92 105 2496.000000
12.40225029 -9.36800003 -0.22950000 94 92 105 4203.000000
12.40425014 -9.36975002 -0.22849999 94 92 105 6760.000000
12.40349960 -9.36900043 -0.22750001 94 92 105 11150.000000
12.40349960 -9.36900043 -0.22650000 128 131 136 16164.000000
12.40450001 -9.36999989 -0.22550000 128 131 136 21325.000000
12.40324974 -9.36900043 -0.22450000 128 131 136 24339.000000
12.40250015 -9.36849976 -0.22350000 128 131 136 23464.000000
12.40324974 -9.36900043 -0.22250000 128 131 136 18489.000000
12.40250015 -9.36824989 -0.22149999 128 131 136 11210.000000
12.40149975 -9.36750031 -0.22050001 128 131 136 5764.000000
12.39875031 -9.36549950 -0.21950001 166 175 170 2953.000000
12.40024948 -9.36674976 -0.21850000 166 175 170 1500.000000
12.40299988 -9.37024975 -0.31600001 190 210 199 1378.000000
12.40299988 -9.37024975 -0.31500000 190 210 199 2564.000000
12.40450001 -9.37125015 -0.31400001 190 210 199 4032.000000
12.40124989 -9.36900043 -0.31299999 190 210 199 5264.000000
12.40299988 -9.36999989 -0.31200001 190 210 199 6442.000000
12.40324974 -9.37024975 -0.31099999 190 210 199 7460.000000
12.40600014 -9.37250042 -0.31000000 160 180 168 7489.000000
12.40299988 -9.37024975 -0.30899999 160 180 168 6939.000000
12.40625000 -9.37275028 -0.30800000 160 180 168 5196.000000
12.40474987 -9.37150002 -0.30700001 160 180 168 3457.000000
12.40550041 -9.37199974 -0.30599999 160 180 168 2060.000000
12.40625000 -9.37275028 -0.30500001 160 180 168 1385.000000
12.41475010 -9.37899971 -0.30425000 130 151 136 1064.000000
12.42125034 -9.38399982 -0.30350000 130 151 136 1210.000000
12.42325020 -9.38549995 -0.30250001 130 151 136 1935.000000
12.42949963 -9.39025021 -0.30149999 130 151 136 3328.000000
12.42924976 -9.39000034 -0.30050001 130 151 136 5478.000000
12.42825031 -9.38924980 -0.29949999 130 151 136 7039.000000
12.42774963 -9.38899994 -0.29850000 145 163 151 6350.000000
12.42850018 -9.38924980 -0.29750001 145 163 151 4714.000000
12.42975044 -9.39025021 -0.29650000 145 163 151 3189.000000
12.42449951 -9.38650036 -0.29550001 145 163 151 2292.000000
12.42599964 -9.38749981 -0.29449999 145 163 151 1517.000000
12.42500019 -9.38675022 -0.29350001 145 163 151 1203.000000
12.42625046 -9.38774967 -0.29249999 145 163 151 1096.000000
12.42574978 -9.38724995 -0.29150000 152 165 158 1046.000000
12.43200016 -9.39200020 -0.29075000 152 165 158 953.000000
12.41899967 -9.38224983 -0.28924999 152 165 158 907.000000
12.41849995 -9.38175011 -0.28825000 152 165 158 928.000000
12.42449951 -9.38624954 -0.28749999 152 165 158 925.000000
12.42374992 -9.38574982 -0.28650001 152 165 158 946.000000
12.42099953 -9.38374996 -0.28549999 124 132 134 928.000000
12.41475010 -9.37899971 -0.28424999 124 132 134 882.000000
12.42350006 -9.38549995 -0.28349999 124 132 134 885.000000
