//X Y Z R G B Intensity
-2.52049994 -3.13424993 7.17875004 209 208 213 800.000000
-2.52099991 -3.13499999 7.18174982 209 208 213 707.000000
-2.52250004 -3.13674998 7.18750000 213 212 218 642.000000
-2.51824999 -3.13150001 7.17675018 213 212 218 614.000000
-2.52174997 -3.13599992 7.18825006 213 212 218 592.000000
-2.51574993 -3.12825012 7.17250013 213 212 218 610.000000
-2.51800013 -3.13124990 7.18074989 213 212 218 571.000000
-2.52200007 -3.13625002 7.19350004 193 190 199 528.000000
-2.52025008 -3.13400006 7.18975019 193 190 199 575.000000
-2.51874995 -3.13225007 7.18725014 193 190 199 521.000000
-2.52125001 -3.13525009 7.19575024 193 190 199 553.000000
-2.51650000 -3.12925005 7.18324995 193 190 199 521.000000
-2.51499987 -3.12750006 7.18099976 133 127 141 571.000000
-2.51699996 -3.13000011 7.18800020 133 127 141 514.000000
-2.51399994 -3.12625003 7.18074989 133 127 141 500.000000
-2.51099992 -3.12249994 7.17374992 133 127 141 496.000000
-2.51924992 -3.13275003 7.19850016 133 127 141 510.000000
-2.51749992 -3.13074994 7.19549990 90 81 100 539.000000
-2.51550007 -3.12800002 7.19075012 90 81 100 575.000000
-2.51999998 -3.13374996 7.20550013 90 81 100 525.000000
-2.51650000 -3.12949991 7.19700003 90 81 100 546.000000
-2.51725006 -3.13024998 7.20025015 90 81 100 582.000000
-2.52099991 -3.13499999 7.21274996 86 74 96 517.000000
-2.51849985 -3.13175011 7.20674992 86 74 96 550.000000
-2.51824999 -3.13150001 7.20749998 86 74 96 517.000000
-2.51499987 -3.12750006 7.19974995 86 74 96 442.000000
-2.51200008 -3.12374997 7.19274998 86 74 96 489.000000
-2.50874996 -3.11949992 7.18449974 87 73 98 496.000000
-2.51375008 -3.12599993 7.20050001 87 73 98 546.000000
-2.51499987 -3.12750006 7.20550013 87 73 98 525.000000
-2.51174998 -3.12325001 7.19750023 87 73 98 485.000000
-2.51550007 -3.12825012 7.21000004 89 73 99 575.000000
-2.51300001 -3.12500000 7.20400000 89 73 99 553.000000
-2.51275015 -3.12474990 7.20524979 89 73 99 557.000000
-2.51224995 -3.12400007 7.20524979 89 73 99 535.000000
-2.51425004 -3.12674999 7.21250010 89 73 99 585.000000
-2.52099991 -3.13474989 7.23299980 88 70 96 525.000000
-2.51075006 -3.12225008 7.20524979 88 70 96 550.000000
-2.51200008 -3.12374997 7.21049976 88 70 96 592.000000
-2.51224995 -3.12400007 7.21224976 88 70 96 517.000000
-2.50524998 -3.11525011 7.19374990 88 70 96 542.000000
-2.51099992 -3.12249994 7.21175003 83 65 91 596.000000
-2.51174998 -3.12350011 7.21525002 83 65 91 564.000000
-2.50600004 -3.11625004 7.20025015 83 65 91 550.000000
-2.50974989 -3.12074995 7.21250010 83 65 91 596.000000
-2.51049995 -3.12174988 7.21600008 83 65 91 614.000000
-2.51075006 -3.12225008 7.21875000 78 58 83 578.000000
-2.50874996 -3.11975002 7.21449995 78 58 83 560.000000
-2.51250005 -3.12450004 7.22650003 78 58 83 617.000000
-2.50825000 -3.11925006 7.21600008 78 58 83 639.000000
-2.50874996 -3.11975002 7.21875000 73 53 78 628.000000
-2.51349998 -3.12549996 7.23350000 73 53 78 550.000000
-2.51174998 -3.12325001 7.22975016 73 53 78 392.000000
-2.50725007 -3.11774993 7.21850014 73 53 78 224.000000
-2.54400015 -3.16300011 7.14174986 95 83 103 321.000000
-2.53824997 -3.15599990 7.12750006 96 83 103 428.000000
-2.53749990 -3.15499997 7.12674999 96 83 103 500.000000
-2.53900003 -3.15674996 7.13199997 96 83 103 496.000000
-2.53600001 -3.15299988 7.12550020 96 83 103 478.000000
-2.53425002 -3.15074992 7.12174988 96 83 103 500.000000
-2.53725004 -3.15475011 7.13199997 88 73 96 535.000000
-2.53450012 -3.15124989 7.12550020 88 73 96 475.000000
-2.53049994 -3.14625001 7.11574984 88 73 96 500.000000
-2.53600001 -3.15299988 7.13250017 88 73 96 535.000000
-2.53075004 -3.14650011 7.11950016 88 73 96 546.000000
-2.53950000 -3.15724993 7.14499998 90 70 95 564.000000
-2.53450012 -3.15124989 7.13250017 90 70 95 575.000000
-2.53550005 -3.15249991 7.13724995 90 70 95 510.000000
-2.53125000 -3.14700007 7.12625027 90 70 95 507.000000
-2.53324986 -3.14974999 7.13374996 90 70 95 535.000000
-2.53049994 -3.14625001 7.12750006 94 74 99 560.000000
-2.53375006 -3.15024996 7.13749981 94 74 99 614.000000
-2.53399992 -3.15074992 7.14025021 94 74 99 575.000000
-2.53324986 -3.14949989 7.13899994 94 74 99 610.000000
-2.53200006 -3.14825010 7.13724995 94 74 99 625.000000
-2.53100014 -3.14700007 7.13600016 92 72 97 639.000000
-2.53550005 -3.15249991 7.15024996 92 72 97 596.000000
-2.52850008 -3.14374995 7.13175011 92 72 97 571.000000
-2.53049994 -3.14625001 7.13875008 92 72 97 560.000000
-2.53450012 -3.15124989 7.15124989 95 75 100 478.000000
-2.53699994 -3.15450001 7.16025019 95 75 100 564.000000
-2.52699995 -3.14175010 7.13299990 95 75 100 564.000000
-2.52725005 -3.14225006 7.13574982 95 75 100 578.000000
-2.52775002 -3.14300013 7.13850021 95 75 100 567.000000
-2.53174996 -3.14774990 7.15075016 91 76 97 571.000000
-2.53149986 -3.14750004 7.15175009 91 76 97 517.000000
-2.52950001 -3.14499998 7.14774990 91 76 97 560.000000
-2.53224993 -3.14825010 7.15649986 91 76 97 535.000000
-2.52999997 -3.14549994 7.15149975 91 76 97 539.000000
-2.53149986 -3.14750004 7.15724993 89 76 96 596.000000
-2.52474999 -3.13899994 7.13999987 89 76 96 632.000000
-2.53600001 -3.15324998 7.17350006 89 76 96 639.000000
-2.52950001 -3.14499998 7.15649986 89 76 96 696.000000
-2.52950001 -3.14475012 7.15750027 89 76 96 671.000000
-2.52950001 -3.14499998 7.15950012 86 77 94 635.000000
-2.52550006 -3.14000010 7.14925003 86 77 94 703.000000
-2.52649999 -3.14124990 7.15350008 86 77 94 692.000000
-2.52699995 -3.14175010 7.15649986 86 77 94 707.000000
-2.52749991 -3.14249992 7.15950012 109 105 119 764.000000
-2.52950001 -3.14499998 7.16650009 109 105 119 796.000000
-2.52775002 -3.14275002 7.16275024 109 105 119 860.000000
-2.52574992 -3.14050007 7.15899992 109 105 119 917.000000
-2.52850008 -3.14374995 7.16800022 109 105 119 982.000000
-2.52925014 -3.14475012 7.17175007 168 168 180 1107.000000
-2.52425003 -3.13849998 7.15899992 168 168 180 1667.000000
-2.52624989 -3.14100003 7.16599989 168 168 180 2989.000000
-2.52524996 -3.13975000 7.16450024 168 168 180 5632.000000
-2.52524996 -3.13975000 7.16625023 168 168 180 8992.000000
-2.52500010 -3.13949990 7.16699982 209 212 221 13032.000000
-2.52474999 -3.13925004 7.16774988 209 212 221 16135.000000
-2.52500010 -3.13949990 7.17000008 209 212 221 18175.000000
-2.52399993 -3.13800001 7.16800022 209 212 221 18800.000000
-2.52425003 -3.13849998 7.17075014 209 212 221 19096.000000
-2.52375007 -3.13800001 7.17075014 209 212 219 19217.000000
-2.52349997 -3.13774991 7.17150021 209 212 219 19400.000000
-2.52375007 -3.13800001 7.17350006 209 212 219 18060.000000
-2.52274990 -3.13649988 7.17175007 209 212 219 15878.000000
-2.52274990 -3.13649988 7.17325020 209 212 219 12975.000000
-2.52150011 -3.13525009 7.17175007 215 216 220 10332.000000
-2.52099991 -3.13424993 7.17124987 215 216 220 7053.000000
-2.52224994 -3.13599992 7.17649984 215 216 220 4417.000000
-2.52150011 -3.13499999 7.17574978 215 216 220 2850.000000
-2.52025008 -3.13350010 7.17350006 209 208 213 1867.000000
-2.52025008 -3.13350010 7.17525005 209 208 213 1350.000000
-2.51975012 -3.13299990 7.17525005 209 208 213 971.000000
-2.52125001 -3.13474989 7.18074989 209 208 213 789.000000
-2.51749992 -3.13024998 7.17175007 209 208 213 685.000000
-2.52049994 -3.13374996 7.18149996 213 212 218 639.000000
-2.51975012 -3.13275003 7.18074989 213 212 218 575.000000
-2.51900005 -3.13199997 7.18074989 213 212 218 567.000000
-2.51674986 -3.12925005 7.17574978 213 212 218 567.000000
-2.52200007 -3.13575006 7.19199991 213 212 218 550.000000
-2.51625013 -3.12875009 7.17724991 193 190 199 496.000000
-2.52099991 -3.13424993 7.19150019 193 190 199 535.000000
-2.51849985 -3.13124990 7.18599987 193 190 199 503.000000
-2.51275015 -3.12400007 7.17100000 193 190 199 510.000000
-2.52200007 -3.13549995 7.19875002 193 190 199 560.000000
-2.51475000 -3.12674999 7.17999983 133 127 141 542.000000
-2.51749992 -3.13024998 7.18949986 133 127 141 539.000000
-2.51450014 -3.12625003 7.18174982 133 127 141 471.000000
-2.51425004 -3.12599993 7.18274975 133 127 141 514.000000
-2.52125001 -3.13474989 7.20450020 90 81 100 525.000000
-2.51375008 -3.12549996 7.18449974 90 81 100 485.000000
-2.51725006 -3.13000011 7.19600010 90 81 100 503.000000
-2.51650000 -3.12899995 7.19525003 90 81 100 507.000000
-2.51699996 -3.12949991 7.19824982 90 81 100 542.000000
-2.51399994 -3.12549996 7.19075012 86 74 96 553.000000
-2.51625013 -3.12849998 7.19875002 86 74 96 521.000000
-2.51425004 -3.12599993 7.19425011 86 74 96 514.000000
-2.51725006 -3.12975001 7.20450020 86 74 96 514.000000
-2.51200008 -3.12325001 7.19075012 86 74 96 503.000000
-2.51425004 -3.12599993 7.19875002 87 73 98 525.000000
-2.51725006 -3.12975001 7.20924997 87 73 98 528.000000
-2.51099992 -3.12199998 7.19274998 87 73 98 485.000000
-2.51600003 -3.12825012 7.20849991 87 73 98 525.000000
-2.51725006 -3.12975001 7.21325016 87 73 98 514.000000
-2.51099992 -3.12225008 7.19750023 89 73 99 553.000000
-2.51399994 -3.12575006 7.20725012 89 73 99 521.000000
-2.51300001 -3.12450004 7.20550013 89 73 99 589.000000
-2.51725006 -3.12975001 7.21925020 89 73 99 553.000000
-2.51125002 -3.12249994 7.20400000 89 73 99 571.000000
-2.51499987 -3.12700009 7.21574974 88 70 96 542.000000
-2.51600003 -3.12825012 7.22049999 88 70 96 571.000000
-2.51200008 -3.12325001 7.21049976 88 70 96 514.000000
-2.51349998 -3.12525010 7.21624994 88 70 96 560.000000
-2.51450014 -3.12625003 7.22025013 83 65 91 564.000000
-2.51574993 -3.12800002 7.22550011 83 65 91 575.000000
-2.51275015 -3.12400007 7.21799994 83 65 91 571.000000
-2.51224995 -3.12374997 7.21875000 83 65 91 557.000000
-2.51200008 -3.12325001 7.21899986 83 65 91 553.000000
-2.50725007 -3.11724997 7.20699978 78 58 83 514.000000
-2.51099992 -3.12199998 7.21899986 78 58 83 542.000000
-2.50775003 -3.11800003 7.21124983 78 58 83 589.000000
-2.50974989 -3.12050009 7.21850014 78 58 83 617.000000
-2.51049995 -3.12150002 7.22249985 78 58 83 664.000000
-2.50725007 -3.11724997 7.21449995 73 53 78 578.000000
-2.50749993 -3.11774993 7.21649981 73 53 78 421.000000
-2.50399995 -3.11325002 7.20774984 73 53 78 289.000000
-2.53999996 -3.15750003 7.13075018 95 83 103 421.000000
-2.53500009 -3.15124989 7.11800003 96 83 103 467.000000
-2.53474998 -3.15074992 7.11875010 96 83 103 496.000000
-2.54099989 -3.15875006 7.13800001 96 83 103 482.000000
-2.53675008 -3.15350008 7.12774992 96 83 103 539.000000
-2.53874993 -3.15599990 7.13474989 96 83 103 528.000000
-2.53975010 -3.15724993 7.13899994 88 73 96 503.000000
-2.53749990 -3.15450001 7.13425016 88 73 96 514.000000
-2.53075004 -3.14599991 7.11625004 88 73 96 542.000000
-2.53699994 -3.15374994 7.13574982 88 73 96 535.000000
-2.53675008 -3.15350008 7.13600016 90 70 95 567.000000
-2.53275013 -3.14849997 7.12650013 90 70 95 514.000000
-2.53600001 -3.15225005 7.13675022 90 70 95 560.000000
-2.53675008 -3.15350008 7.14050007 90 70 95 460.000000
-2.53474998 -3.15100002 7.13649988 90 70 95 571.000000
-2.53224993 -3.14774990 7.13075018 94 74 99 546.000000
-2.53450012 -3.15074992 7.13875008 94 74 99 578.000000
-2.53349996 -3.14925003 7.13700008 94 74 99 585.000000
-2.53075004 -3.14599991 7.13100004 94 74 99 596.000000
-2.53675008 -3.15350008 7.14900017 94 74 99 621.000000
-2.53174996 -3.14724994 7.13675022 92 72 97 592.000000
-2.53149986 -3.14700007 7.13724995 92 72 97 607.000000
-2.53125000 -3.14674997 7.13824987 92 72 97 567.000000
-2.53149986 -3.14700007 7.14050007 92 72 97 517.000000
-2.52799988 -3.14249992 7.13175011 92 72 97 528.000000
-2.53574991 -3.15225005 7.15499973 95 75 100 539.000000
-2.53075004 -3.14599991 7.14225006 95 75 100 535.000000
-2.53474998 -3.15100002 7.15549994 95 75 100 603.000000
-2.53450012 -3.15050006 7.15574980 95 75 100 621.000000
-2.52874994 -3.14350009 7.14125013 95 75 100 603.000000
-2.53149986 -3.14700007 7.15024996 91 76 97 575.000000
-2.52950001 -3.14450002 7.14599991 91 76 97 560.000000
-2.53349996 -3.14949989 7.15899992 91 76 97 557.000000
-2.53574991 -3.15225005 7.16674995 91 76 97 557.000000
-2.53450012 -3.15050006 7.16450024 89 76 96 621.000000
-2.52425003 -3.13774991 7.13675022 89 76 96 621.000000
-2.52850008 -3.14324999 7.15075016 89 76 96 642.000000
-2.52850008 -3.14324999 7.15175009 89 76 96 628.000000
-2.52950001 -3.14450002 7.15649986 89 76 96 667.000000
-2.52824998 -3.14300013 7.15425014 86 77 94 642.000000
-2.52974987 -3.14475012 7.15974998 86 77 94 667.000000
-2.52799988 -3.14249992 7.15625000 86 77 94 710.000000
-2.52950001 -3.14450002 7.16225004 86 77 94 714.000000
-2.53100014 -3.14650011 7.16800022 86 77 94 775.000000
-2.52824998 -3.14275002 7.16149998 109 105 119 807.000000
-2.52775002 -3.14225006 7.16125011 109 105 119 907.000000
-2.52699995 -3.14150000 7.16100025 109 105 119 885.000000
-2.52550006 -3.13949990 7.15824986 109 105 119 1025.000000
-2.52699995 -3.14150000 7.16400003 109 105 119 1167.000000
-2.52699995 -3.14124990 7.16524982 168 168 180 1632.000000
-2.52524996 -3.13899994 7.16125011 168 168 180 2871.000000
-2.52524996 -3.13925004 7.16300011 168 168 180 5378.000000
-2.52524996 -3.13899994 7.16424990 168 168 180 8850.000000
-2.52500010 -3.13875008 7.16499996 209 212 221 12492.000000
-2.52524996 -3.13899994 7.16725016 209 212 221 15396.000000
-2.52524996 -3.13899994 7.16849995 209 212 221 17853.000000
-2.52449989 -3.13824987 7.16825008 209 212 221 18625.000000
-2.52399993 -3.13774991 7.16849995 209 212 221 18682.000000
-2.52449989 -3.13800001 7.17075014 209 212 219 19400.000000
-2.52449989 -3.13824987 7.17275000 209 212 219 19589.000000
-2.52425003 -3.13800001 7.17350006 209 212 219 19339.000000
-2.52425003 -3.13774991 7.17449999 209 212 219 17746.000000
-2.52349997 -3.13700008 7.17449999 209 212 219 16003.000000
-2.52274990 -3.13599992 7.17350006 215 216 220 13203.000000
-2.52250004 -3.13575006 7.17399979 215 216 220 10435.000000
-2.52200007 -3.13499999 7.17399979 215 216 220 7321.000000
-2.52099991 -3.13374996 7.17275000 215 216 220 4653.000000
-2.52174997 -3.13474989 7.17649984 215 216 220 3003.000000
-2.52075005 -3.13350010 7.17500019 209 208 213 1946.000000
-2.52274990 -3.13599992 7.18200016 209 208 213 1228.000000
-2.52200007 -3.13499999 7.18149996 209 208 213 914.000000
-2.52125001 -3.13400006 7.18074989 209 208 213 803.000000
-2.51999998 -3.13249993 7.17850018 209 208 213 696.000000
-2.52025008 -3.13299990 7.18125010 213 212 218 650.000000
-2.52325010 -3.13674998 7.19124985 213 212 218 614.000000
-2.51749992 -3.12949991 7.17600012 213 212 218 585.000000
-2.51349998 -3.12474990 7.16650009 213 212 218 546.000000
-2.51524997 -3.12649989 7.17224979 193 190 199 564.000000
-2.51600003 -3.12750006 7.17600012 193 190 199 557.000000
-2.51625013 -3.12800002 7.17850018 193 190 199 517.000000
-2.51699996 -3.12899995 7.18200016 193 190 199 525.000000
-2.51950002 -3.13199997 7.19050026 193 190 199 571.000000
-2.51574993 -3.12750006 7.18149996 133 127 141 575.000000
-2.51674986 -3.12849998 7.18550014 133 127 141 542.000000
-2.51625013 -3.12800002 7.18575001 133 127 141 500.000000
-2.51674986 -3.12849998 7.18849993 133 127 141 475.000000
-2.51849985 -3.13074994 7.19474983 133 127 141 503.000000
-2.52049994 -3.13325000 7.20249987 90 81 100 507.000000
-2.51824999 -3.13024998 7.19700003 90 81 100 546.000000
-2.51399994 -3.12525010 7.18674994 90 81 100 507.000000
-2.51674986 -3.12849998 7.19575024 90 81 100 567.000000
-2.51499987 -3.12649989 7.19225025 90 81 100 478.000000
-2.51275015 -3.12350011 7.18699980 86 74 96 532.000000
-2.51650000 -3.12800002 7.19925022 86 74 96 525.000000
-2.51849985 -3.13074994 7.20650005 86 74 96 485.000000
-2.51200008 -3.12275004 7.18975019 86 74 96 514.000000
-2.51049995 -3.12074995 7.18650007 86 74 96 449.000000
-2.51475000 -3.12599993 7.19999981 87 73 98 475.000000
-2.52200007 -3.13499999 7.22249985 87 73 98 482.000000
-2.51324987 -3.12400007 7.19875002 87 73 98 471.000000
-2.51475000 -3.12599993 7.20450020 87 73 98 553.000000
-2.51849985 -3.13074994 7.21724987 89 73 99 546.000000
-2.51775002 -3.13000011 7.21675014 89 73 99 542.000000
-2.51499987 -3.12625003 7.20949984 89 73 99 539.000000
-2.51125002 -3.12174988 7.20100021 89 73 99 560.000000
-2.51375008 -3.12474990 7.20924997 89 73 99 603.000000
-2.51125002 -3.12174988 7.20349979 88 70 96 557.000000
-2.51200008 -3.12249994 7.20699978 88 70 96 596.000000
-2.51149988 -3.12199998 7.20725012 88 70 96 550.000000
-2.51450014 -3.12575006 7.21724987 88 70 96 546.000000
-2.51524997 -3.12649989 7.22074986 88 70 96 542.000000
-2.51224995 -3.12275004 7.21350002 83 65 91 578.000000
-2.51524997 -3.12674999 7.22375011 83 65 91 600.000000
-2.51499987 -3.12625003 7.22450018 83 65 91 589.000000
-2.51099992 -3.12124991 7.21425009 83 65 91 607.000000
-2.50924993 -3.11925006 7.21124983 83 65 91 521.000000
-2.50850010 -3.11849999 7.21075010 78 58 83 571.000000
-2.51099992 -3.12150002 7.21899986 78 58 83 582.000000
-2.51275015 -3.12350011 7.22550011 78 58 83 632.000000
-2.50999999 -3.12024999 7.21925020 78 58 83 642.000000
-2.50950003 -3.11949992 7.21875000 73 53 78 592.000000
-2.50850010 -3.11824989 7.21799994 73 53 78 457.000000
-2.51475000 -3.12599993 7.23750019 73 53 78 314.000000
-2.53775001 -3.15424991 7.12325001 95 83 103 328.000000
-2.53574991 -3.15149999 7.11875010 96 83 103 400.000000
-2.53425002 -3.14974999 7.11600018 96 83 103 535.000000
-2.53800011 -3.15424991 7.12774992 96 83 103 567.000000
-2.54049993 -3.15750003 7.13625002 96 83 103 571.000000
-2.53474998 -3.15050006 7.12199974 96 83 103 517.000000
-2.53950000 -3.15650010 7.13675022 88 73 96 507.000000
-2.53824997 -3.15475011 7.13425016 88 73 96 514.000000
-2.53675008 -3.15275002 7.13150024 88 73 96 567.000000
-2.53874993 -3.15549994 7.13875008 88 73 96 600.000000
-2.53625011 -3.15225005 7.13325024 88 73 96 575.000000
-2.53675008 -3.15299988 7.13625002 90 70 95 564.000000
-2.53824997 -3.15475011 7.14200020 90 70 95 510.000000
-2.53649998 -3.15275002 7.13850021 90 70 95 507.000000
-2.53275013 -3.14800000 7.12900019 90 70 95 471.000000
-2.53349996 -3.14899993 7.13299990 90 70 95 546.000000
-2.53375006 -3.14899993 7.13474989 94 74 99 514.000000
-2.53600001 -3.15199995 7.14300013 94 74 99 564.000000
-2.53375006 -3.14899993 7.13749981 94 74 99 635.000000
-2.53200006 -3.14700007 7.13425016 94 74 99 560.000000
-2.53149986 -3.14650011 7.13450003 94 74 99 560.000000
-2.53075004 -3.14525008 7.13325024 92 72 97 575.000000
-2.53649998 -3.15249991 7.15100002 92 72 97 546.000000
-2.53725004 -3.15350008 7.15499973 92 72 97 578.000000
-2.52574992 -3.13925004 7.12400007 92 72 97 535.000000
-2.53174996 -3.14674997 7.14225006 95 75 100 553.000000
-2.52574992 -3.13899994 7.12650013 95 75 100 539.000000
-2.53200006 -3.14674997 7.14550018 95 75 100 510.000000
-2.52500010 -3.13824987 7.12725019 95 75 100 578.000000
-2.52749991 -3.14150000 7.13625002 95 75 100 596.000000
-2.53500009 -3.15074992 7.15850019 91 76 97 603.000000
-2.53149986 -3.14650011 7.15024996 91 76 97 517.000000
-2.52974987 -3.14424992 7.14674997 91 76 97 578.000000
-2.52900004 -3.14350009 7.14624977 91 76 97 560.000000
-2.52850008 -3.14275002 7.14650011 91 76 97 542.000000
-2.52900004 -3.14324999 7.14900017 89 76 96 614.000000
-2.52675009 -3.14050007 7.14424992 89 76 96 617.000000
-2.53100014 -3.14575005 7.15750027 89 76 96 707.000000
-2.52799988 -3.14199996 7.15049982 89 76 96 614.000000
-2.52824998 -3.14225006 7.15224981 89 76 96 660.000000
-2.52850008 -3.14275002 7.15499973 86 77 94 650.000000
-2.52550006 -3.13875008 7.14750004 86 77 94 696.000000
-2.52725005 -3.14124990 7.15450001 86 77 94 717.000000
-2.52600002 -3.13949990 7.15175009 86 77 94 746.000000
-2.52950001 -3.14374995 7.16300011 109 105 119 785.000000
-2.53200006 -3.14700007 7.17199993 109 105 119 857.000000
-2.52675009 -3.14050007 7.15875006 109 105 119 914.000000
-2.52474999 -3.13800001 7.15425014 109 105 119 978.000000
-2.52624989 -3.14000010 7.16050005 109 105 119 1128.000000
-2.52799988 -3.14199996 7.16650009 168 168 180 1628.000000
-2.52500010 -3.13824987 7.15950012 168 168 180 2867.000000
-2.52574992 -3.13925004 7.16300011 168 168 180 5153.000000
-2.52550006 -3.13875008 7.16349983 168 168 180 8453.000000
-2.52500010 -3.13824987 7.16400003 168 168 180 12164.000000
-2.52550006 -3.13899994 7.16674995 209 212 221 15396.000000
-2.52550006 -3.13875008 7.16800022 209 212 221 17542.000000
-2.52524996 -3.13849998 7.16874981 209 212 221 18342.000000
-2.52449989 -3.13774991 7.16849995 209 212 221 19035.000000
-2.52474999 -3.13774991 7.17000008 209 212 221 19653.000000
-2.52425003 -3.13724995 7.17000008 209 212 219 20182.000000
-2.52449989 -3.13750005 7.17224979 209 212 219 19850.000000
-2.52425003 -3.13724995 7.17299986 209 212 219 18975.000000
-2.52399993 -3.13724995 7.17425013 209 212 219 17900.000000
-2.52325010 -3.13599992 7.17325020 209 212 219 15432.000000
-2.52274990 -3.13549995 7.17350006 215 216 220 12889.000000
-2.52250004 -3.13499999 7.17399979 215 216 220 10057.000000
-2.52224994 -3.13474989 7.17500019 215 216 220 7035.000000
-2.52174997 -3.13424993 7.17525005 215 216 220 4489.000000
-2.52150011 -3.13400006 7.17549992 209 208 213 2764.000000
-2.52200007 -3.13450003 7.17875004 209 208 213 1817.000000
-2.52375007 -3.13674998 7.18499994 209 208 213 1217.000000
-2.52224994 -3.13474989 7.18225002 209 208 213 889.000000
-2.52150011 -3.13400006 7.18149996 209 208 213 717.000000
-2.51999998 -3.13199997 7.17875004 213 212 218 689.000000
-2.51650000 -3.12774992 7.17024994 213 212 218 621.000000
-2.51775002 -3.12925005 7.17525005 213 212 218 635.000000
-2.51499987 -3.12575006 7.16849995 213 212 218 603.000000
-2.51800013 -3.12975001 7.17899990 213 212 218 582.000000
-2.51975012 -3.13150001 7.18499994 193 190 199 550.000000
-2.51950002 -3.13124990 7.18575001 193 190 199 542.000000
-2.51699996 -3.12825012 7.18025017 193 190 199 596.000000
-2.52250004 -3.13525009 7.19775009 193 190 199 542.000000
-2.51775002 -3.12925005 7.18550014 193 190 199 550.000000
-2.51674986 -3.12800002 7.18375015 133 127 141 557.000000
-2.52349997 -3.13625002 7.20450020 133 127 141 517.000000
-2.51200008 -3.12199998 7.17299986 133 127 141 496.000000
-2.51699996 -3.12825012 7.18875027 133 127 141 510.000000
-2.51775002 -3.12925005 7.19274998 90 81 100 532.000000
-2.51149988 -3.12150002 7.17600012 90 81 100 514.000000
-2.51550007 -3.12649989 7.18949986 90 81 100 492.000000
-2.51524997 -3.12599993 7.18975019 90 81 100 475.000000
-2.51499987 -3.12575006 7.19075012 90 81 100 532.000000
-2.51975012 -3.13175011 7.20599985 86 74 96 514.000000
-2.51349998 -3.12400007 7.18924999 86 74 96 489.000000
-2.51775002 -3.12925005 7.20300007 86 74 96 507.000000
-2.52150011 -3.13400006 7.21549988 86 74 96 485.000000
-2.52174997 -3.13424993 7.21775007 86 74 96 482.000000
-2.51425004 -3.12500000 7.19775009 87 73 98 489.000000
-2.51425004 -3.12500000 7.19899988 87 73 98 500.000000
-2.51975012 -3.13175011 7.21624994 87 73 98 528.000000
-2.51800013 -3.12949991 7.21274996 87 73 98 532.000000
-2.51450014 -3.12525010 7.20424986 87 73 98 539.000000
-2.51450014 -3.12525010 7.20550013 89 73 99 525.000000
-2.51375008 -3.12424994 7.20450020 89 73 99 567.000000
-2.51375008 -3.12424994 7.20650005 89 73 99 603.000000
-2.51349998 -3.12400007 7.20749998 89 73 99 607.000000
-2.51725006 -3.12875009 7.21925020 88 70 96 585.000000
-2.51650000 -3.12774992 7.21850014 88 70 96 571.000000
-2.51600003 -3.12724996 7.21899986 88 70 96 600.000000
-2.51125002 -3.12124991 7.20650005 88 70 96 539.000000
-2.51450014 -3.12525010 7.21724987 88 70 96 528.000000
-2.51425004 -3.12474990 7.21775007 83 65 91 553.000000
-2.51625013 -3.12724996 7.22499990 83 65 91 585.000000
-2.51174998 -3.12174988 7.21350002 83 65 91 546.000000
-2.50974989 -3.11925006 7.20949984 83 65 91 560.000000
-2.51174998 -3.12174988 7.21649981 83 65 91 560.000000
-2.51049995 -3.12024999 7.21474981 78 58 83 546.000000
-2.51025009 -3.11999989 7.21549988 78 58 83 542.000000
-2.50775003 -3.11675000 7.20949984 78 58 83 550.000000
-2.50699997 -3.11599994 7.20924997 78 58 83 650.000000
-2.51425004 -3.12474990 7.23124981 78 58 83 625.000000
-2.50725007 -3.11625004 7.21299982 73 53 78 525.000000
-2.51125002 -3.12100005 7.22550011 73 53 78 364.000000
-2.54250002 -3.15950012 7.13500023 95 83 103 367.000000
-2.53874993 -3.15475011 7.12575006 95 83 103 396.000000
-2.53675008 -3.15225005 7.12150002 96 83 103 539.000000
-2.53550005 -3.15074992 7.11950016 96 83 103 557.000000
-2.54049993 -3.15674996 7.13474989 96 83 103 542.000000
-2.53975010 -3.15599990 7.13425016 96 83 103 535.000000
-2.54099989 -3.15774989 7.13950014 88 73 96 517.000000
-2.53775001 -3.15350008 7.13150024 88 73 96 514.000000
-2.53725004 -3.15299988 7.13199997 88 73 96 564.000000
-2.53725004 -3.15275002 7.13275003 88 73 96 596.000000
-2.53850007 -3.15450001 7.13800001 88 73 96 564.000000
-2.53900003 -3.15499997 7.14074993 90 70 95 610.000000
-2.53699994 -3.15249991 7.13675022 90 70 95 532.000000
-2.53125000 -3.14525008 7.12174988 90 70 95 564.000000
-2.53550005 -3.15074992 7.13549995 90 70 95 496.000000
-2.53100014 -3.14499998 7.12424994 90 70 95 521.000000
-2.53625011 -3.15175009 7.14025021 94 74 99 521.000000
-2.53625011 -3.15175009 7.14225006 94 74 99 560.000000
-2.53349996 -3.14825010 7.13525009 94 74 99 585.000000
-2.53349996 -3.14825010 7.13700008 94 74 99 564.000000
-2.53675008 -3.15225005 7.14774990 94 74 99 521.000000
-2.53524995 -3.15050006 7.14499998 92 72 97 550.000000
-2.53250003 -3.14724994 7.13875008 92 72 97 560.000000
-2.52974987 -3.14350009 7.13224983 92 72 97 496.000000
-2.53425002 -3.14925003 7.14650011 92 72 97 500.000000
-2.53524995 -3.15050006 7.15075016 92 72 97 482.000000
-2.53075004 -3.14499998 7.13950014 95 75 100 546.000000
-2.53349996 -3.14825010 7.14849997 95 75 100 539.000000
-2.53299999 -3.14750004 7.14849997 95 75 100 635.000000
-2.53125000 -3.14549994 7.14550018 95 75 100 571.000000
-2.53025007 -3.14424992 7.14375019 95 75 100 582.000000
-2.53250003 -3.14700007 7.15175009 91 76 97 600.000000
-2.53524995 -3.15050006 7.16100025 91 76 97 567.000000
-2.52850008 -3.14225006 7.14349985 91 76 97 585.000000
-2.53349996 -3.14825010 7.15875006 91 76 97 621.000000
-2.53375006 -3.14875007 7.16125011 89 76 96 642.000000
-2.52749991 -3.14074993 7.14449978 89 76 96 675.000000
-2.52950001 -3.14350009 7.15199995 89 76 96 650.000000
-2.53200006 -3.14625001 7.15999985 89 76 96 632.000000
-2.53550005 -3.15074992 7.17199993 89 76 96 646.000000
-2.53049994 -3.14450002 7.15875006 86 77 94 664.000000
-2.53049994 -3.14450002 7.16050005 86 77 94 735.000000
-2.53100014 -3.14525008 7.16324997 86 77 94 703.000000
-2.52900004 -3.14275002 7.15925026 86 77 94 735.000000
-2.52474999 -3.13724995 7.14825010 86 77 94 896.000000
-2.52749991 -3.14100003 7.15799999 109 105 119 867.000000
-2.52699995 -3.14024997 7.15775013 109 105 119 875.000000
-2.52775002 -3.14124990 7.16149998 109 105 119 964.000000
-2.52649999 -3.13949990 7.15899992 109 105 119 1067.000000
-2.52824998 -3.14175010 7.16575003 109 105 119 1432.000000
-2.52725005 -3.14050007 7.16424990 168 168 180 2417.000000
-2.52574992 -3.13875008 7.16174984 168 168 180 4821.000000
-2.52550006 -3.13849998 7.16249990 168 168 180 7889.000000
-2.52574992 -3.13849998 7.16424990 168 168 180 11585.000000
-2.52574992 -3.13875008 7.16625023 209 212 221 15278.000000
-2.52524996 -3.13824987 7.16625023 209 212 221 17192.000000
-2.52574992 -3.13849998 7.16874981 209 212 221 18682.000000
-2.52500010 -3.13774991 7.16825008 209 212 221 19278.000000
-2.52449989 -3.13700008 7.16825008 209 212 221 19532.000000
-2.52425003 -3.13700008 7.16900015 209 212 219 20457.000000
-2.52449989 -3.13700008 7.17075014 209 212 219 20667.000000
-2.52474999 -3.13750005 7.17325020 209 212 219 20592.000000
-2.52449989 -3.13700008 7.17374992 209 212 219 19589.000000
-2.52399993 -3.13649988 7.17425013 209 212 219 17285.000000
-2.52425003 -3.13674998 7.17600012 215 216 220 15432.000000
-2.52349997 -3.13575006 7.17549992 215 216 220 12592.000000
-2.52274990 -3.13499999 7.17474985 215 216 220 10192.000000
-2.52224994 -3.13450003 7.17525005 215 216 220 6982.000000
-2.52250004 -3.13450003 7.17675018 215 216 220 4389.000000
-2.52174997 -3.13350010 7.17600012 209 208 213 2746.000000
-2.52150011 -3.13325000 7.17700005 209 208 213 1728.000000
-2.52224994 -3.13424993 7.18050003 209 208 213 1135.000000
-2.52099991 -3.13275003 7.17875004 209 208 213 821.000000
-2.51874995 -3.12975001 7.17350006 209 208 213 760.000000
-2.52125001 -3.13299990 7.18225002 213 212 218 685.000000
-2.52325010 -3.13549995 7.18949986 213 212 218 567.000000
-2.51800013 -3.12899995 7.17574978 213 212 218 614.000000
-2.52474999 -3.13750005 7.19675016 215 213 218 596.000000
-2.51999998 -3.13150001 7.18475008 193 190 199 578.000000
-2.52224994 -3.13424993 7.19250011 193 190 199 571.000000
-2.52399993 -3.13649988 7.19899988 200 197 206 585.000000
-2.51874995 -3.12975001 7.18499994 193 190 199 550.000000
-2.51924992 -3.13050008 7.18825006 193 190 199 535.000000
-2.51999998 -3.13150001 7.19199991 133 127 141 557.000000
-2.51900005 -3.13024998 7.19024992 133 127 141 607.000000
-2.51874995 -3.12975001 7.19099998 133 127 141 542.000000
-2.51824999 -3.12949991 7.19150019 133 127 141 517.000000
-2.51874995 -3.12975001 7.19400024 133 127 141 546.000000
-2.52099991 -3.13275003 7.20225000 90 81 100 550.000000
-2.51924992 -3.13050008 7.19850016 90 81 100 492.000000
-2.51450014 -3.12474990 7.18650007 90 81 100 521.000000
-2.51650000 -3.12724996 7.19350004 90 81 100 521.000000
-2.52025008 -3.13175011 7.20550013 90 81 100 503.000000
-2.51399994 -3.12424994 7.18975019 86 74 96 492.000000
-2.51749992 -3.12849998 7.20100021 86 74 96 503.000000
-2.51250005 -3.12199998 7.18774986 86 74 96 525.000000
-2.51450014 -3.12450004 7.19500017 86 74 96 492.000000
-2.51275015 -3.12249994 7.19199991 86 74 96 475.000000
-2.51200008 -3.12150002 7.19075012 87 73 98 485.000000
-2.51149988 -3.12100005 7.19124985 87 73 98 489.000000
-2.51375008 -3.12374997 7.19899988 87 73 98 525.000000
-2.51475000 -3.12500000 7.20324993 87 73 98 539.000000
-2.51499987 -3.12525010 7.20550013 89 73 99 553.000000
-2.51275015 -3.12225008 7.20025015 89 73 99 589.000000
-2.51324987 -3.12299991 7.20324993 89 73 99 539.000000
-2.51625013 -3.12674999 7.21325016 89 73 99 582.000000
-2.51699996 -3.12774992 7.21700001 89 73 99 607.000000
-2.51025009 -3.11949992 7.19925022 88 70 96 585.000000
-2.51550007 -3.12599993 7.21574974 88 70 96 585.000000
-2.50825000 -3.11675000 7.19624996 88 70 96 578.000000
-2.51075006 -3.11999989 7.20499992 88 70 96 557.000000
-2.51475000 -3.12500000 7.21799994 88 70 96 571.000000
-2.51625013 -3.12674999 7.22375011 82 64 90 521.000000
-2.51375008 -3.12350011 7.21775007 83 65 91 528.000000
-2.51425004 -3.12424994 7.22074986 82 64 90 557.000000
-2.51574993 -3.12625003 7.22700024 82 64 90 553.000000
-2.51025009 -3.11949992 7.21250010 83 65 91 521.000000
-2.51499987 -3.12525010 7.22749996 77 57 84 550.000000
-2.51224995 -3.12174988 7.22074986 78 58 83 557.000000
-2.51025009 -3.11949992 7.21724987 78 58 83 617.000000
-2.51375008 -3.12374997 7.22849989 77 57 84 610.000000
-2.51075006 -3.12024999 7.22175026 73 53 78 614.000000
-2.50699997 -3.11549997 7.21224976 73 53 78 460.000000
-2.51025009 -3.11949992 7.22275019 75 52 78 339.000000
-2.53524995 -3.15000010 7.11324978 92 83 102 321.000000
-2.53924990 -3.15499997 7.12575006 92 83 102 417.000000
-2.53850007 -3.15400004 7.12500000 96 83 103 500.000000
-2.53349996 -3.14774990 7.11224985 96 83 103 535.000000
-2.53500009 -3.14974999 7.11849976 96 83 103 546.000000
-2.53775001 -3.15299988 7.12699986 96 83 103 532.000000
-2.53524995 -3.14974999 7.12150002 96 83 103 492.000000
-2.53450012 -3.14899993 7.12125015 90 72 96 550.000000
-2.53900003 -3.15450001 7.13474989 90 72 96 514.000000
-2.53349996 -3.14774990 7.12099981 90 72 96 503.000000
-2.53425002 -3.14875007 7.12449980 90 72 96 535.000000
-2.53324986 -3.14750004 7.12325001 90 72 96 560.000000
-2.53550005 -3.15024996 7.13075018 90 70 95 500.000000
-2.53950000 -3.15525007 7.14400005 90 70 95 510.000000
-2.53349996 -3.14774990 7.12849998 90 70 95 507.000000
-2.53324986 -3.14750004 7.12925005 90 70 95 453.000000
-2.53250003 -3.14650011 7.12849998 90 70 95 560.000000
-2.53075004 -3.14450002 7.12500000 95 72 98 557.000000
-2.53524995 -3.14974999 7.13875008 95 72 98 539.000000
-2.53625011 -3.15124989 7.14349985 95 72 98 585.000000
-2.53500009 -3.14974999 7.14125013 95 72 98 550.000000
-2.53174996 -3.14575005 7.13374996 95 72 98 546.000000
-2.53474998 -3.14925003 7.14324999 93 70 96 542.000000
-2.53399992 -3.14849997 7.14274979 93 70 96 510.000000
-2.53200006 -3.14599991 7.13875008 93 70 96 507.000000
-2.53625011 -3.15100002 7.15175009 93 70 96 517.000000
-2.53550005 -3.15024996 7.15149975 93 73 98 496.000000
-2.52850008 -3.14150000 7.13299990 93 73 98 592.000000
-2.53025007 -3.14374995 7.13924980 93 73 98 614.000000
-2.53574991 -3.15050006 7.15625000 93 73 98 585.000000
-2.53550005 -3.15024996 7.15675020 93 73 98 582.000000
-2.52749991 -3.14024997 7.13574982 94 76 98 550.000000
-2.53174996 -3.14549994 7.14925003 94 76 98 617.000000
-2.53299999 -3.14724994 7.15474987 94 76 98 542.000000
-2.52850008 -3.14150000 7.14300013 94 76 98 607.000000
-2.52999997 -3.14350009 7.14900017 94 76 98 642.000000
-2.52874994 -3.14199996 7.14699984 88 75 93 625.000000
-2.53275013 -3.14674997 7.15950012 88 75 93 664.000000
-2.53049994 -3.14400005 7.15450001 88 75 93 675.000000
-2.53025007 -3.14374995 7.15525007 88 75 93 696.000000
-2.53299999 -3.14724994 7.16499996 91 83 98 653.000000
-2.52925014 -3.14275002 7.15574980 91 83 98 685.000000
-2.52500010 -3.13724995 7.14475012 91 83 98 692.000000
-2.52925014 -3.14249992 7.15850019 91 83 98 753.000000
-2.52824998 -3.14124990 7.15675020 91 83 98 785.000000
-2.52699995 -3.13975000 7.15474987 125 123 134 867.000000
-2.52799988 -3.14100003 7.15950012 125 123 134 878.000000
-2.52874994 -3.14199996 7.16300011 125 123 134 935.000000
-2.52649999 -3.13899994 7.15799999 125 123 134 1100.000000
-2.52775002 -3.14074993 7.16300011 125 123 134 1457.000000
-2.52775002 -3.14074993 7.16450024 178 181 190 2478.000000
-2.52699995 -3.13949990 7.16324997 178 181 190 4696.000000
-2.52600002 -3.13849998 7.16249990 178 181 190 7689.000000
-2.52649999 -3.13925004 7.16524982 178 181 190 11539.000000
-2.52600002 -3.13849998 7.16550016 178 181 190 14864.000000
-2.52600002 -3.13849998 7.16674995 209 214 220 17389.000000
-2.52550006 -3.13800001 7.16699982 209 214 220 18400.000000
-2.52500010 -3.13724995 7.16674995 209 214 220 19721.000000
-2.52500010 -3.13724995 7.16800022 209 214 220 19467.000000
-2.52524996 -3.13750005 7.17024994 209 214 220 20596.000000
-2.52524996 -3.13750005 7.17175007 211 216 220 20950.000000
-2.52524996 -3.13774991 7.17350006 211 216 220 21025.000000
-2.52449989 -3.13649988 7.17250013 211 216 220 20385.000000
-2.52399993 -3.13599992 7.17250013 211 216 220 19096.000000
-2.52425003 -3.13625002 7.17500019 214 215 219 17039.000000
-2.52375007 -3.13575006 7.17474985 214 215 219 15392.000000
-2.52349997 -3.13525009 7.17549992 214 215 219 13000.000000
-2.52274990 -3.13450003 7.17474985 214 215 219 9650.000000
-2.52274990 -3.13424993 7.17600012 214 215 219 6760.000000
-2.52150011 -3.13299990 7.17425013 212 212 214 4289.000000
-2.52150011 -3.13275003 7.17549992 212 212 214 2639.000000
-2.52250004 -3.13400006 7.17950010 212 212 214 1632.000000
-2.52274990 -3.13424993 7.18174982 212 212 214 1057.000000
-2.52325010 -3.13499999 7.18499994 212 212 214 853.000000
-2.52125001 -3.13249993 7.18025017 215 213 218 721.000000
-2.52125001 -3.13249993 7.18249989 215 213 218 685.000000
-2.51824999 -3.12875009 7.17525005 215 213 218 628.000000
-2.51849985 -3.12925005 7.17724991 215 213 218 617.000000
-2.52250004 -3.13424993 7.19024992 215 213 218 614.000000
-2.51775002 -3.12800002 7.17799997 200 197 206 585.000000
-2.52075005 -3.13199997 7.18800020 200 197 206 553.000000
-2.51775002 -3.12825012 7.18125010 200 197 206 589.000000
-2.51950002 -3.13024998 7.18750000 200 197 206 553.000000
-2.52049994 -3.13175011 7.19199991 200 197 206 517.000000
-2.52049994 -3.13175011 7.19325018 152 146 160 535.000000
-2.51699996 -3.12750006 7.18499994 152 146 160 535.000000
-2.52049994 -3.13150001 7.19600010 152 146 160 521.000000
-2.52224994 -3.13400006 7.20300007 152 146 160 557.000000
-2.52474999 -3.13674998 7.21124983 103 96 112 532.000000
-2.52224994 -3.13374996 7.20524979 103 96 112 535.000000
-2.51600003 -3.12625003 7.18949986 103 96 112 535.000000
-2.51650000 -3.12674999 7.19225025 103 96 112 510.000000
-2.52150011 -3.13299990 7.20800018 103 96 112 542.000000
-2.51824999 -3.12875009 7.19999981 86 77 98 525.000000
-2.51900005 -3.12975001 7.20375013 86 77 98 496.000000
-2.51950002 -3.13050008 7.20674992 86 77 98 521.000000
-2.51349998 -3.12275004 7.19075012 86 77 98 510.000000
-2.51450014 -3.12424994 7.19549990 86 77 98 457.000000
-2.51399994 -3.12350011 7.19525003 89 77 101 467.000000
-2.51749992 -3.12800002 7.20674992 89 77 101 521.000000
-2.51499987 -3.12500000 7.20125008 89 77 101 535.000000
-2.51425004 -3.12400007 7.20074987 89 77 101 542.000000
-2.51125002 -3.11999989 7.19299984 89 77 101 539.000000
-2.51650000 -3.12649989 7.20949984 87 73 98 546.000000
-2.51524997 -3.12500000 7.20749998 87 73 98 535.000000
-2.51250005 -3.12174988 7.20125008 87 73 98 578.000000
-2.51324987 -3.12275004 7.20524979 87 73 98 525.000000
-2.51425004 -3.12400007 7.20924997 85 69 96 553.000000
-2.51075006 -3.11949992 7.20074987 85 69 96 514.000000
-2.51174998 -3.12074995 7.20499992 85 69 96 567.000000
-2.51049995 -3.11925006 7.20324993 85 69 96 550.000000
-2.51425004 -3.12374997 7.21474981 85 69 96 528.000000
-2.50675011 -3.11450005 7.19500017 82 64 90 525.000000
-2.51125002 -3.12024999 7.20949984 82 64 90 571.000000
-2.51200008 -3.12100005 7.21325016 82 64 90 560.000000
-2.51250005 -3.12150002 7.21574974 82 64 90 557.000000
-2.51674986 -3.12700009 7.22975016 82 64 90 585.000000
-2.51174998 -3.12074995 7.21700001 77 57 84 553.000000
-2.50650001 -3.11424994 7.20324993 77 57 84 582.000000
-2.51324987 -3.12275004 7.22424984 77 57 84 621.000000
-2.51324987 -3.12249994 7.22525024 77 57 84 614.000000
-2.51300001 -3.12225008 7.22650003 77 57 84 617.000000
-2.50900006 -3.11750007 7.21649981 75 52 78 542.000000
-2.51149988 -3.12024999 7.22475004 75 52 78 350.000000
-2.54874992 -3.16624999 7.14974976 92 83 102 300.000000
-2.53924990 -3.15450001 7.12449980 92 83 102 414.000000
-2.53874993 -3.15374994 7.12449980 92 83 102 414.000000
-2.54449987 -3.16074991 7.14174986 96 83 103 467.000000
-2.54124999 -3.15700006 7.13450003 96 83 103 550.000000
-2.53625011 -3.15050006 7.12150002 96 83 103 532.000000
-2.53975010 -3.15499997 7.13275003 96 83 103 507.000000
-2.53649998 -3.15100002 7.12550020 96 83 103 478.000000
-2.53850007 -3.15350008 7.13224983 90 72 96 535.000000
-2.53725004 -3.15175009 7.13024998 90 72 96 532.000000
-2.53725004 -3.15175009 7.13124990 90 72 96 550.000000
-2.53349996 -3.14700007 7.12225008 90 72 96 539.000000
-2.53874993 -3.15374994 7.13875008 90 70 95 510.000000
-2.53675008 -3.15100002 7.13425016 90 70 95 517.000000
-2.53299999 -3.14650011 7.12550020 90 70 95 482.000000
-2.53675008 -3.15124989 7.13775015 90 70 95 467.000000
-2.52925014 -3.14199996 7.11775017 90 70 95 514.000000
-2.53250003 -3.14575005 7.12800026 95 72 98 539.000000
-2.53375006 -3.14750004 7.13350010 95 72 98 542.000000
-2.53324986 -3.14674997 7.13325024 95 72 98 578.000000
-2.53149986 -3.14450002 7.12975025 95 72 98 550.000000
-2.53025007 -3.14324999 7.12800026 95 72 98 546.000000
-2.53625011 -3.15074992 7.14650011 93 70 96 514.000000
-2.52950001 -3.14225006 7.12849998 93 70 96 510.000000
-2.53250003 -3.14599991 7.13875008 93 70 96 535.000000
-2.52974987 -3.14249992 7.13224983 93 70 96 485.000000
-2.53500009 -3.14925003 7.14874983 93 70 96 575.000000
-2.53324986 -3.14700007 7.14524984 93 73 98 539.000000
-2.53275013 -3.14625001 7.14524984 93 73 98 567.000000
-2.53324986 -3.14700007 7.14799976 93 73 98 521.000000
-2.53149986 -3.14475012 7.14424992 93 73 98 550.000000
-2.53025007 -3.14324999 7.14225006 93 73 98 546.000000
-2.53149986 -3.14450002 7.14699984 94 76 98 564.000000
-2.52824998 -3.14074993 7.13975000 94 76 98 582.000000
-2.53049994 -3.14350009 7.14725018 94 76 98 625.000000
-2.52775002 -3.14000010 7.14099979 94 76 98 639.000000
-2.52900004 -3.14150000 7.14575005 88 75 93 642.000000
-2.52999997 -3.14275002 7.15000010 88 75 93 642.000000
-2.52675009 -3.13875008 7.14274979 88 75 93 671.000000
-2.53075004 -3.14374995 7.15499973 88 75 93 728.000000
-2.53399992 -3.14774990 7.16599989 88 75 93 671.000000
-2.52900004 -3.14175010 7.15324974 91 83 98 714.000000
-2.52775002 -3.14000010 7.15124989 91 83 98 714.000000
-2.53699994 -3.15149999 7.17875004 91 83 98 778.000000
-2.53049994 -3.14350009 7.16200018 91 83 98 764.000000
-2.52950001 -3.14199996 7.16025019 91 83 98 853.000000
-2.52725005 -3.13949990 7.15574980 125 123 134 889.000000
-2.53049994 -3.14350009 7.16599989 125 123 134 907.000000
-2.52900004 -3.14150000 7.16300011 125 123 134 1082.000000
-2.52749991 -3.13975000 7.16074991 125 123 134 1417.000000
-2.52725005 -3.13925004 7.16125011 125 123 134 2332.000000
-2.52850008 -3.14074993 7.16599989 178 181 190 4528.000000
-2.52699995 -3.13899994 7.16324997 178 181 190 7532.000000
-2.52649999 -3.13824987 7.16324997 178 181 190 11282.000000
-2.52624989 -3.13824987 7.16450024 178 181 190 14335.000000
-2.52675009 -3.13875008 7.16699982 209 214 220 17192.000000
-2.52550006 -3.13724995 7.16524982 209 214 220 18921.000000
-2.52600002 -3.13774991 7.16774988 209 214 220 19657.000000
-2.52550006 -3.13724995 7.16774988 209 214 220 19721.000000
-2.52574992 -3.13750005 7.17024994 209 214 220 20453.000000
-2.52524996 -3.13700008 7.17049980 211 216 220 20667.000000
-2.52550006 -3.13724995 7.17250013 211 216 220 21096.000000
-2.52500010 -3.13674998 7.17250013 211 216 220 20664.000000
-2.52449989 -3.13599992 7.17224979 211 216 220 19717.000000
-2.52425003 -3.13549995 7.17299986 211 216 220 18796.000000
-2.52375007 -3.13525009 7.17350006 214 215 219 17142.000000
-2.52399993 -3.13549995 7.17549992 214 215 219 15235.000000
-2.52399993 -3.13525009 7.17675018 214 215 219 12592.000000
-2.52300000 -3.13400006 7.17525005 214 215 219 9575.000000
-2.52274990 -3.13400006 7.17649984 214 215 219 6414.000000
-2.52325010 -3.13450003 7.17899990 212 212 214 3900.000000
-2.52125001 -3.13199997 7.17474985 212 212 214 2428.000000
-2.52125001 -3.13199997 7.17649984 212 212 214 1500.000000
-2.52349997 -3.13474989 7.18449974 212 212 214 1110.000000
-2.52200007 -3.13275003 7.18125010 212 212 214 807.000000
-2.51824999 -3.12825012 7.17199993 215 213 218 710.000000
-2.52125001 -3.13199997 7.18225002 215 213 218 664.000000
-2.52600002 -3.13774991 7.19724989 215 213 218 646.000000
-2.52300000 -3.13400006 7.18975019 215 213 218 592.000000
-2.52375007 -3.13499999 7.19350004 200 197 206 628.000000
-2.52025008 -3.13074994 7.18524981 200 197 206 557.000000
-2.51924992 -3.12949991 7.18400002 200 197 206 592.000000
-2.52025008 -3.13050008 7.18774986 200 197 206 625.000000
-2.52125001 -3.13175011 7.19225025 200 197 206 585.000000
-2.52474999 -3.13649988 7.20424986 152 146 160 553.000000
-2.52274990 -3.13400006 7.19974995 152 146 160 535.000000
-2.52125001 -3.13199997 7.19724989 152 146 160 567.000000
-2.51699996 -3.12674999 7.18624973 152 146 160 525.000000
-2.51800013 -3.12774992 7.19024992 152 146 160 546.000000
-2.51524997 -3.12450004 7.18424988 103 96 112 500.000000
-2.52224994 -3.13325000 7.20550013 103 96 112 521.000000
-2.51950002 -3.12975001 7.19899988 103 96 112 528.000000
-2.51600003 -3.12549996 7.19075012 103 96 112 507.000000
-2.51999998 -3.13050008 7.20375013 103 96 112 510.000000
-2.51924992 -3.12925005 7.20249987 86 77 98 503.000000
-2.51800013 -3.12800002 7.20074987 86 77 98 510.000000
-2.51450014 -3.12374997 7.19250011 86 77 98 453.000000
-2.52500010 -3.13649988 7.22375011 86 77 98 496.000000
-2.51674986 -3.12625003 7.20125008 89 77 101 453.000000
-2.51524997 -3.12450004 7.19899988 89 77 101 528.000000
-2.52099991 -3.13150001 7.21649981 89 77 101 528.000000
-2.51499987 -3.12424994 7.20125008 89 77 101 525.000000
-2.51324987 -3.12199998 7.19750023 89 77 101 525.000000
-2.51650000 -3.12599993 7.20825005 87 73 98 535.000000
-2.51574993 -3.12500000 7.20749998 87 73 98 603.000000
-2.51275015 -3.12150002 7.20050001 87 73 98 514.000000
-2.51849985 -3.12849998 7.21824980 87 73 98 521.000000
-2.51349998 -3.12225008 7.20524979 87 73 98 542.000000
-2.51425004 -3.12299991 7.20874977 85 69 96 517.000000
-2.51625013 -3.12575006 7.21649981 85 69 96 546.000000
-2.51499987 -3.12424994 7.21449995 85 69 96 560.000000
-2.51200008 -3.12024999 7.20699978 85 69 96 575.000000
-2.51725006 -3.12700009 7.22399998 85 69 96 525.000000
-2.51425004 -3.12325001 7.21624994 82 64 90 550.000000
-2.51475000 -3.12400007 7.21974993 82 64 90 564.000000
-2.51399994 -3.12299991 7.21875000 82 64 90 557.000000
-2.51075006 -3.11899996 7.21099997 82 64 90 575.000000
-2.51625013 -3.12575006 7.22800016 77 57 84 539.000000
-2.51224995 -3.12074995 7.21824980 77 57 84 589.000000
-2.51375008 -3.12249994 7.22375011 77 57 84 607.000000
-2.51275015 -3.12124991 7.22224998 77 57 84 632.000000
-2.51399994 -3.12299991 7.22800016 77 57 84 653.000000
-2.50850010 -3.11599994 7.21299982 75 52 78 557.000000
-2.50600004 -3.11299992 7.20774984 75 52 78 407.000000
-2.54349995 -3.15925002 7.13350010 92 83 102 346.000000
-2.53775001 -3.15199995 7.11875010 92 83 102 378.000000
-2.54474998 -3.16074991 7.13975000 92 83 102 467.000000
-2.53275013 -3.14575005 7.10774994 92 83 102 507.000000
-2.54200006 -3.15724993 7.13500023 96 83 103 503.000000
-2.54150009 -3.15650010 7.13474989 96 83 103 539.000000
-2.53874993 -3.15324998 7.12849998 96 83 103 546.000000
-2.53900003 -3.15350008 7.13075018 96 83 103 567.000000
-2.53924990 -3.15374994 7.13275003 90 72 96 532.000000
-2.53950000 -3.15424991 7.13525009 90 72 96 528.000000
-2.53574991 -3.14925003 7.12550020 90 72 96 507.000000
-2.53425002 -3.14774990 7.12349987 90 72 96 535.000000
-2.53500009 -3.14849997 7.12650013 90 72 96 532.000000
-2.53625011 -3.15000010 7.13150024 90 70 95 532.000000
-2.53675008 -3.15050006 7.13425016 90 70 95 503.000000
-2.53550005 -3.14925003 7.13275003 90 70 95 500.000000
-2.53174996 -3.14450002 7.12325001 90 70 95 510.000000
-2.53474998 -3.14825010 7.13325024 90 70 95 532.000000
-2.53675008 -3.15074992 7.14050007 95 72 98 564.000000
-2.53425002 -3.14750004 7.13474989 95 72 98 571.000000
-2.53275013 -3.14575005 7.13175011 95 72 98 525.000000
-2.53574991 -3.14949989 7.14174986 95 72 98 546.000000
-2.53824997 -3.15275002 7.15049982 93 70 96 500.000000
-2.53749990 -3.15149999 7.14925003 93 70 96 542.000000
-2.53049994 -3.14300013 7.13150024 93 70 96 482.000000
-2.53324986 -3.14625001 7.14050007 93 70 96 507.000000
-2.52699995 -3.13849998 7.12424994 93 70 96 507.000000
-2.53025007 -3.14275002 7.13525009 93 73 98 546.000000
-2.53574991 -3.14925003 7.15175009 93 73 98 575.000000
-2.53075004 -3.14300013 7.13899994 93 73 98 567.000000
-2.52999997 -3.14225006 7.13875008 93 73 98 539.000000
-2.52974987 -3.14199996 7.13924980 93 73 98 535.000000
-2.53075004 -3.14324999 7.14400005 94 76 98 564.000000
-2.52874994 -3.14074993 7.13975000 94 76 98 592.000000
-2.53025007 -3.14275002 7.14524984 94 76 98 596.000000
-2.52900004 -3.14100003 7.14324999 94 76 98 625.000000
-2.53375006 -3.14700007 7.15799999 94 76 98 664.000000
-2.53174996 -3.14450002 7.15374994 88 75 93 667.000000
-2.52725005 -3.13899994 7.14274979 88 75 93 664.000000
-2.52950001 -3.14175010 7.15049982 88 75 93 660.000000
-2.53075004 -3.14324999 7.15549994 88 75 93 635.000000
-2.52775002 -3.13949990 7.14825010 88 75 93 732.000000
-2.52999997 -3.14225006 7.15574980 91 83 98 717.000000
-2.53174996 -3.14450002 7.16249990 91 83 98 792.000000
-2.52974987 -3.14199996 7.15799999 91 83 98 828.000000
-2.53025007 -3.14275002 7.16125011 91 83 98 882.000000
-2.52900004 -3.14100003 7.15875006 125 123 134 860.000000
-2.53025007 -3.14275002 7.16400003 125 123 134 978.000000
-2.52874994 -3.14074993 7.16149998 125 123 134 1121.000000
-2.52900004 -3.14100003 7.16300011 125 123 134 1539.000000
-2.52799988 -3.13975000 7.16174984 125 123 134 2810.000000
-2.52749991 -3.13925004 7.16225004 178 181 190 5171.000000
-2.52775002 -3.13925004 7.16400003 178 181 190 8507.000000
-2.52749991 -3.13899994 7.16475010 178 181 190 12139.000000
