//X Y Z R G B Intensity
-2.52925014 -3.15400004 7.14650011 88 75 95 632.000000
-2.52749991 -3.15149999 7.14249992 88 75 95 625.000000
-2.52824998 -3.15249991 7.14624977 88 75 95 610.000000
-2.52925014 -3.15400004 7.15075016 85 73 93 600.000000
-2.52824998 -3.15275002 7.14925003 85 73 93 614.000000
-2.52850008 -3.15275002 7.15100002 85 73 93 596.000000
-2.53149986 -3.15650010 7.16100025 85 73 93 546.000000
-2.52850008 -3.15299988 7.15425014 85 73 95 550.000000
-2.52649999 -3.15050006 7.15000010 85 73 95 603.000000
-2.52274990 -3.14599991 7.14125013 85 73 95 596.000000
-2.52649999 -3.15050006 7.15324974 85 73 95 578.000000
-2.52725005 -3.15149999 7.15675020 85 73 95 567.000000
-2.52375007 -3.14700007 7.14799976 89 77 99 532.000000
-2.52449989 -3.14800000 7.15149975 89 77 99 535.000000
-2.51975012 -3.14199996 7.13975000 89 77 99 539.000000
-2.52399993 -3.14724994 7.15299988 89 77 99 532.000000
-2.52824998 -3.15249991 7.16650009 89 77 99 564.000000
-2.51950002 -3.14175010 7.14324999 86 74 98 564.000000
-2.52150011 -3.14450002 7.15075016 86 74 98 560.000000
-2.52449989 -3.14800000 7.16050005 86 74 98 503.000000
-2.52550006 -3.14925003 7.16499996 86 74 98 600.000000
-2.52399993 -3.14750004 7.16200018 86 74 98 635.000000
-2.52250004 -3.14549994 7.15899992 80 67 93 732.000000
-2.52624989 -3.15024996 7.17124987 80 67 93 671.000000
-2.52300000 -3.14625001 7.16349983 80 67 93 717.000000
-2.52325010 -3.14650011 7.16575003 80 67 93 753.000000
-2.52049994 -3.14300013 7.15899992 80 67 93 807.000000
-2.52174997 -3.14450002 7.16400003 101 88 116 785.000000
-2.52049994 -3.14300013 7.16200018 101 88 116 1046.000000
-2.51999998 -3.14225006 7.16200018 101 88 116 1289.000000
-2.52099991 -3.14350009 7.16650009 101 88 116 1810.000000
-2.51999998 -3.14225006 7.16475010 135 125 150 2510.000000
-2.51975012 -3.14199996 7.16550016 135 125 150 3864.000000
-2.52099991 -3.14350009 7.17049980 135 125 150 5853.000000
-2.51999998 -3.14249992 7.16949987 135 125 150 8232.000000
-2.51975012 -3.14225006 7.17049980 135 125 150 9971.000000
-2.51975012 -3.14225006 7.17175007 187 183 200 10207.000000
-2.51924992 -3.14150000 7.17175007 187 183 200 8107.000000
-2.51849985 -3.14050007 7.17100000 187 183 200 5610.000000
-2.51874995 -3.14100003 7.17350006 187 183 200 3260.000000
-2.51775002 -3.13949990 7.17175007 187 183 200 1860.000000
-2.51450014 -3.13549995 7.16375017 193 191 205 1342.000000
-2.51800013 -3.13975000 7.17525005 193 191 205 1007.000000
-2.51775002 -3.13949990 7.17600012 193 191 205 839.000000
-2.51950002 -3.14175010 7.18274975 193 191 205 750.000000
-2.51775002 -3.13949990 7.17875004 193 191 205 725.000000
-2.51999998 -3.14225006 7.18674994 189 185 202 757.000000
-2.51725006 -3.13875008 7.18025017 189 185 202 635.000000
-2.51975012 -3.14199996 7.18924999 189 185 202 692.000000
-2.51699996 -3.13875008 7.18300009 189 185 202 650.000000
-2.52174997 -3.14450002 7.19775009 150 145 165 646.000000
-2.51674986 -3.13824987 7.18475008 150 145 165 653.000000
-2.51300001 -3.13374996 7.17574978 150 145 165 589.000000
-2.51625013 -3.13774991 7.18650007 150 145 165 607.000000
-2.51125002 -3.13150001 7.17374992 150 145 165 589.000000
-2.51399994 -3.13499999 7.18324995 102 94 117 585.000000
-2.51450014 -3.13549995 7.18550014 102 94 117 603.000000
-2.51425004 -3.13499999 7.18624973 102 94 117 603.000000
-2.51699996 -3.13849998 7.19575024 102 94 117 571.000000
-2.51224995 -3.13249993 7.18349981 102 94 117 596.000000
-2.51200008 -3.13249993 7.18449974 84 76 100 542.000000
-2.51324987 -3.13400006 7.18949986 84 76 100 557.000000
-2.51075006 -3.13074994 7.18375015 84 76 100 546.000000
-2.51475000 -3.13599992 7.19700003 84 76 100 603.000000
-2.51149988 -3.13150001 7.18849993 84 76 100 553.000000
-2.51099992 -3.13124990 7.18900013 87 77 104 578.000000
-2.51550007 -3.13674998 7.20324993 87 77 104 510.000000
-2.51275015 -3.13325000 7.19675016 87 77 104 553.000000
-2.51874995 -3.14074993 7.21549988 87 77 104 575.000000
-2.51149988 -3.13150001 7.19600010 87 77 104 557.000000
-2.51324987 -3.13400006 7.20275021 86 73 101 525.000000
-2.50850010 -3.12800002 7.19024992 86 73 101 539.000000
-2.51075006 -3.13100004 7.19899988 86 73 101 525.000000
-2.52224994 -3.14525008 7.23325014 86 73 101 510.000000
-2.51125002 -3.13150001 7.20275021 86 71 100 553.000000
-2.51275015 -3.13325000 7.20874977 86 71 100 525.000000
-2.51125002 -3.13150001 7.20574999 86 71 100 496.000000
-2.50600004 -3.12474990 7.19199991 86 71 100 525.000000
-2.51025009 -3.13000011 7.20574999 86 71 100 542.000000
-2.50500011 -3.12374997 7.19274998 85 69 98 539.000000
-2.51250005 -3.13299990 7.21549988 85 69 98 521.000000
-2.50950003 -3.12949991 7.20849991 85 69 98 553.000000
-2.50524998 -3.12374997 7.19724989 85 69 98 560.000000
-2.50624990 -3.12525010 7.20200014 85 69 98 567.000000
-2.50924993 -3.12875009 7.21175003 84 65 95 557.000000
-2.50449991 -3.12299991 7.19950008 84 65 95 578.000000
-2.50974989 -3.12975001 7.21649981 84 65 95 532.000000
-2.50924993 -3.12899995 7.21649981 84 65 95 585.000000
-2.50475001 -3.12325001 7.20475006 84 65 95 557.000000
-2.50999999 -3.13000011 7.22149992 81 62 90 560.000000
-2.50524998 -3.12400007 7.20924997 81 62 90 546.000000
-2.50699997 -3.12625003 7.21574974 81 62 90 560.000000
-2.50874996 -3.12825012 7.22200012 81 62 90 553.000000
-2.50624990 -3.12525010 7.21624994 78 58 85 596.000000
-2.50624990 -3.12500000 7.21775007 78 58 85 575.000000
-2.50199986 -3.11999989 7.20725012 78 58 85 557.000000
-2.50550008 -3.12424994 7.21850014 78 58 85 564.000000
-2.50850010 -3.12800002 7.22900009 78 58 85 539.000000
-2.50274992 -3.12074995 7.21374989 77 54 82 567.000000
-2.50075006 -3.11824989 7.20949984 77 54 82 453.000000
-2.50650001 -3.12549996 7.22725010 77 54 82 317.000000
-2.53075004 -3.15525007 7.11749983 91 77 102 367.000000
-2.53699994 -3.16300011 7.13600016 85 71 94 407.000000
-2.53224993 -3.15700006 7.12449980 85 71 94 492.000000
-2.53450012 -3.16000009 7.13224983 85 71 94 546.000000
-2.52725005 -3.15074992 7.11324978 85 71 94 525.000000
-2.53224993 -3.15700006 7.12874985 85 71 94 539.000000
-2.53075004 -3.15525007 7.12599993 82 68 91 535.000000
-2.53100014 -3.15549994 7.12825012 82 68 91 614.000000
-2.52974987 -3.15400004 7.12599993 82 68 91 532.000000
-2.53450012 -3.15974998 7.14050007 82 68 91 535.000000
-2.53349996 -3.15849996 7.13924980 82 68 91 614.000000
-2.52675009 -3.15024996 7.12199974 85 72 92 514.000000
-2.52775002 -3.15124989 7.12599993 85 72 92 503.000000
-2.53200006 -3.15674996 7.13950014 85 72 92 521.000000
-2.52675009 -3.15024996 7.12625027 85 72 92 550.000000
-2.52950001 -3.15374994 7.13549995 85 72 92 517.000000
-2.52799988 -3.15175009 7.13275003 85 72 92 582.000000
-2.52775002 -3.15149999 7.13325024 85 72 92 567.000000
-2.52399993 -3.14674997 7.12424994 85 72 92 600.000000
-2.52900004 -3.15299988 7.13975000 85 72 92 607.000000
-2.52799988 -3.15199995 7.13875008 88 75 95 600.000000
-2.52900004 -3.15275002 7.14225006 88 75 95 614.000000
-2.53025007 -3.15450001 7.14750004 88 75 95 578.000000
-2.53025007 -3.15450001 7.14874983 88 75 95 607.000000
-2.52375007 -3.14650011 7.13250017 88 75 95 600.000000
-2.52399993 -3.14674997 7.13425016 85 73 93 603.000000
-2.52900004 -3.15299988 7.15000010 85 73 93 607.000000
-2.52500010 -3.14774990 7.13975000 85 73 93 596.000000
-2.52874994 -3.15249991 7.15175009 85 73 93 614.000000
-2.52524996 -3.14825010 7.14349985 85 73 93 564.000000
-2.52874994 -3.15249991 7.15474987 85 73 95 600.000000
-2.52624989 -3.14949989 7.14925003 85 73 95 632.000000
-2.52900004 -3.15299988 7.15850019 85 73 95 596.000000
-2.52500010 -3.14800000 7.14849997 85 73 95 528.000000
-2.52675009 -3.15024996 7.15525007 85 73 95 553.000000
-2.51824999 -3.13975000 7.13250017 89 77 99 571.000000
-2.52325010 -3.14575005 7.14799976 89 77 99 528.000000
-2.52600002 -3.14925003 7.15724993 89 77 99 603.000000
-2.52775002 -3.15149999 7.16375017 89 77 99 557.000000
-2.52624989 -3.14974999 7.16125011 86 74 98 553.000000
-2.52874994 -3.15249991 7.16925001 86 74 98 557.000000
-2.52174997 -3.14400005 7.15100002 86 74 98 578.000000
-2.52325010 -3.14575005 7.15649986 86 74 98 596.000000
-2.52025008 -3.14199996 7.14949989 86 74 98 592.000000
-2.52125001 -3.14350009 7.15425014 80 67 93 646.000000
-2.51950002 -3.14100003 7.15024996 80 67 93 678.000000
-2.51849985 -3.13975000 7.14874983 80 67 93 632.000000
-2.51950002 -3.14124990 7.15350008 80 67 93 746.000000
-2.52500010 -3.14800000 7.17024994 80 67 93 771.000000
-2.52150011 -3.14374995 7.16200018 101 88 116 832.000000
-2.52300000 -3.14575005 7.16800022 101 88 116 882.000000
-2.52300000 -3.14549994 7.16925001 101 88 116 1017.000000
-2.52250004 -3.14475012 7.16900015 101 88 116 1328.000000
-2.52125001 -3.14324999 7.16725016 101 88 116 1728.000000
-2.51999998 -3.14175010 7.16499996 135 125 150 2667.000000
-2.52075005 -3.14275002 7.16874981 135 125 150 4278.000000
-2.52025008 -3.14225006 7.16874981 135 125 150 6725.000000
-2.51999998 -3.14199996 7.16949987 135 125 150 8939.000000
-2.52049994 -3.14225006 7.17199993 135 125 150 9714.000000
-2.51950002 -3.14124990 7.17100000 187 183 200 8507.000000
-2.51849985 -3.14000010 7.16975021 187 183 200 6007.000000
-2.51800013 -3.13925004 7.16949987 187 183 200 3507.000000
-2.51775002 -3.13899994 7.17049980 187 183 200 2182.000000
-2.51849985 -3.13975000 7.17374992 193 191 205 1364.000000
-2.51924992 -3.14100003 7.17749977 193 191 205 1060.000000
-2.51800013 -3.13925004 7.17525005 193 191 205 896.000000
-2.51600003 -3.13674998 7.17124987 193 191 205 767.000000
-2.51425004 -3.13450003 7.16750002 193 191 205 746.000000
-2.51574993 -3.13649988 7.17325020 189 185 202 685.000000
-2.51699996 -3.13800001 7.17850018 189 185 202 671.000000
-2.52075005 -3.14275002 7.19050026 189 185 202 614.000000
-2.51600003 -3.13674998 7.17824984 189 185 202 639.000000
-2.51800013 -3.13925004 7.18550014 189 185 202 617.000000
-2.51324987 -3.13325000 7.17325020 150 145 165 600.000000
-2.52150011 -3.14374995 7.19850016 150 145 165 575.000000
-2.51475000 -3.13525009 7.18074989 150 145 165 535.000000
-2.51600003 -3.13700008 7.18599987 150 145 165 553.000000
-2.51499987 -3.13549995 7.18400002 150 145 165 610.000000
-2.51375008 -3.13400006 7.18225002 102 94 117 621.000000
-2.51600003 -3.13700008 7.19024992 102 94 117 600.000000
-2.51625013 -3.13724995 7.19225025 102 94 117 617.000000
-2.51524997 -3.13575006 7.19075012 102 94 117 625.000000
-2.51874995 -3.14024997 7.20225000 84 76 100 578.000000
-2.51224995 -3.13199997 7.18499994 84 76 100 610.000000
-2.51775002 -3.13899994 7.20249987 84 76 100 528.000000
-2.51025009 -3.12949991 7.18225002 84 76 100 496.000000
-2.51300001 -3.13325000 7.19199991 84 76 100 582.000000
-2.50900006 -3.12800002 7.18149996 87 77 104 596.000000
-2.51600003 -3.13674998 7.20300007 87 77 104 557.000000
-2.51224995 -3.13225007 7.19400024 87 77 104 578.000000
-2.50999999 -3.12925005 7.18900013 87 77 104 535.000000
-2.51200008 -3.13175011 7.19575024 87 77 104 553.000000
-2.51200008 -3.13175011 7.19775009 86 73 101 557.000000
-2.51200008 -3.13175011 7.19925022 86 73 101 517.000000
-2.51524997 -3.13575006 7.20975018 86 73 101 510.000000
-2.50874996 -3.12774992 7.19274998 86 73 101 510.000000
-2.50699997 -3.12549996 7.18900013 86 73 101 553.000000
-2.50650001 -3.12474990 7.18900013 86 71 100 482.000000
-2.51699996 -3.13800001 7.22049999 86 71 100 482.000000
-2.50999999 -3.12925005 7.20174980 86 71 100 503.000000
-2.51174998 -3.13150001 7.20849991 86 71 100 575.000000
-2.50999999 -3.12925005 7.20475006 86 71 100 560.000000
-2.50749993 -3.12625003 7.19925022 85 69 98 521.000000
-2.50600004 -3.12450004 7.19675016 85 69 98 553.000000
-2.50950003 -3.12875009 7.20825005 85 69 98 496.000000
-2.51075006 -3.13050008 7.21350002 85 69 98 564.000000
-2.50725007 -3.12575006 7.20450020 84 65 95 603.000000
-2.50900006 -3.12800002 7.21075010 84 65 95 557.000000
-2.51125002 -3.13100004 7.21925020 84 65 95 550.000000
-2.50650001 -3.12500000 7.20674992 84 65 95 535.000000
-2.50825000 -3.12700009 7.21299982 84 65 95 542.000000
-2.50449991 -3.12249994 7.20400000 81 62 90 582.000000
-2.51025009 -3.12975001 7.22200012 81 62 90 546.000000
-2.50624990 -3.12474990 7.21224976 81 62 90 553.000000
-2.50850010 -3.12724996 7.21974993 81 62 90 589.000000
-2.49974990 -3.11649990 7.19624996 81 62 90 542.000000
-2.50749993 -3.12625003 7.22025013 78 58 85 596.000000
-2.50375009 -3.12150002 7.21049976 78 58 85 589.000000
-2.51049995 -3.13000011 7.23175001 78 58 85 557.000000
-2.50550008 -3.12374997 7.21850014 78 58 85 592.000000
-2.50775003 -3.12649989 7.22674990 78 58 85 560.000000
-2.49874997 -3.11525011 7.20225000 77 54 82 507.000000
-2.50375009 -3.12150002 7.21799994 77 54 82 396.000000
-2.50425005 -3.12225008 7.22125006 77 54 82 303.000000
-2.53675008 -3.16199994 7.10675001 68 50 72 332.000000
-2.53800011 -3.16374993 7.13775015 91 77 102 414.000000
-2.52799988 -3.15124989 7.11100006 85 71 94 449.000000
-2.53200006 -3.15625000 7.12349987 85 71 94 525.000000
-2.53149986 -3.15549994 7.12374973 85 71 94 575.000000
-2.52574992 -3.14825010 7.10874987 85 71 94 521.000000
-2.52950001 -3.15299988 7.12074995 85 71 94 496.000000
-2.53200006 -3.15625000 7.12925005 82 68 91 535.000000
-2.53349996 -3.15799999 7.13500023 82 68 91 542.000000
-2.52749991 -3.15074992 7.11975002 82 68 91 535.000000
-2.53049994 -3.15424991 7.12925005 82 68 91 560.000000
-2.52850008 -3.15175009 7.12524986 85 72 92 528.000000
-2.52874994 -3.15199995 7.12699986 85 72 92 525.000000
-2.52850008 -3.15199995 7.12825012 85 72 92 560.000000
-2.52925014 -3.15275002 7.13175011 85 72 92 507.000000
-2.52850008 -3.15175009 7.13100004 85 72 92 582.000000
-2.53250003 -3.15700006 7.14400005 85 72 92 578.000000
-2.53025007 -3.15400004 7.13899994 85 72 92 585.000000
-2.52999997 -3.15374994 7.13975000 85 72 92 610.000000
-2.52925014 -3.15275002 7.13875008 85 72 92 625.000000
-2.52900004 -3.15225005 7.13950014 85 72 92 614.000000
-2.52874994 -3.15199995 7.14025021 88 75 95 564.000000
-2.53200006 -3.15625000 7.15100002 88 75 95 610.000000
-2.52699995 -3.15000010 7.13824987 88 75 95 571.000000
-2.52550006 -3.14825010 7.13574982 88 75 95 617.000000
-2.52224994 -3.14424992 7.12800026 88 75 95 603.000000
-2.52425003 -3.14650011 7.13474989 85 73 93 635.000000
-2.53250003 -3.15674996 7.15950012 85 73 93 582.000000
-2.52675009 -3.14974999 7.14499998 85 73 93 582.000000
-2.52524996 -3.14774990 7.14225006 85 73 93 575.000000
-2.52500010 -3.14724994 7.14249992 85 73 95 560.000000
-2.52725005 -3.15024996 7.15075016 85 73 95 567.000000
-2.52325010 -3.14525008 7.14074993 85 73 95 564.000000
-2.52550006 -3.14800000 7.14849997 85 73 95 614.000000
-2.52675009 -3.14974999 7.15374994 85 73 95 592.000000
-2.53075004 -3.15475011 7.16650009 89 77 99 575.000000
-2.52224994 -3.14400005 7.14375019 89 77 99 528.000000
-2.53100014 -3.15475011 7.16975021 89 77 99 585.000000
-2.51999998 -3.14124990 7.14050007 89 77 99 542.000000
-2.52075005 -3.14225006 7.14375019 89 77 99 603.000000
-2.52799988 -3.15124989 7.16575003 86 74 98 521.000000
-2.52224994 -3.14400005 7.15100002 86 74 98 546.000000
-2.52099991 -3.14249992 7.14900017 86 74 98 571.000000
-2.52049994 -3.14175010 7.14874983 86 74 98 632.000000
-2.53025007 -3.15400004 7.17799997 85 75 100 685.000000
-2.52174997 -3.14350009 7.15549994 80 67 93 714.000000
-2.52300000 -3.14499998 7.16025019 80 67 93 714.000000
-2.52474999 -3.14700007 7.16650009 80 67 93 732.000000
-2.51874995 -3.13975000 7.15124989 80 67 93 739.000000
-2.52200007 -3.14374995 7.16174984 80 67 93 771.000000
-2.52099991 -3.14249992 7.16074991 101 88 116 803.000000
-2.51975012 -3.14100003 7.15850019 101 88 116 939.000000
-2.52174997 -3.14324999 7.16524982 101 88 116 1039.000000
-2.52049994 -3.14175010 7.16324997 101 88 116 1403.000000
-2.51999998 -3.14100003 7.16300011 135 125 150 1892.000000
-2.52200007 -3.14374995 7.17049980 135 125 150 2989.000000
-2.51999998 -3.14124990 7.16625023 135 125 150 4946.000000
-2.51999998 -3.14100003 7.16750002 135 125 150 7646.000000
-2.52025008 -3.14175010 7.17024994 135 125 150 9471.000000
-2.51975012 -3.14100003 7.17000008 187 183 200 9339.000000
-2.51924992 -3.14050007 7.17024994 187 183 200 7107.000000
-2.51849985 -3.13925004 7.16925001 187 183 200 4564.000000
-2.51824999 -3.13899994 7.17000008 187 183 200 2907.000000
-2.51924992 -3.14024997 7.17425013 187 183 200 1728.000000
-2.52025008 -3.14150000 7.17850018 193 191 205 1167.000000
-2.51625013 -3.13649988 7.16874981 193 191 205 903.000000
-2.51824999 -3.13899994 7.17574978 193 191 205 821.000000
-2.51699996 -3.13750005 7.17350006 193 191 205 775.000000
-2.51450014 -3.13450003 7.16825008 193 191 205 721.000000
-2.51550007 -3.13549995 7.17250013 189 185 202 682.000000
-2.51849985 -3.13925004 7.18249989 194 191 208 682.000000
-2.51849985 -3.13949990 7.18400002 194 191 208 682.000000
-2.51699996 -3.13750005 7.18099976 189 185 202 635.000000
-2.51674986 -3.13724995 7.18174982 167 162 182 610.000000
-2.51550007 -3.13575006 7.17974997 150 145 165 603.000000
-2.51650000 -3.13700008 7.18424988 167 162 182 607.000000
-2.51849985 -3.13949990 7.19150019 167 162 182 542.000000
-2.51250005 -3.13199997 7.17574978 150 145 165 567.000000
-2.51099992 -3.13000011 7.17275000 102 94 117 596.000000
-2.51725006 -3.13774991 7.19175005 116 108 131 625.000000
-2.51874995 -3.13949990 7.19750023 116 108 131 614.000000
-2.51450014 -3.13424993 7.18699980 116 108 131 582.000000
-2.51425004 -3.13400006 7.18774986 116 108 131 650.000000
-2.51200008 -3.13124990 7.18274975 84 76 100 567.000000
-2.51425004 -3.13424993 7.19099998 89 81 105 592.000000
-2.51874995 -3.13975000 7.20499992 89 81 105 575.000000
-2.50900006 -3.12750006 7.17850018 84 76 100 550.000000
-2.51650000 -3.13700008 7.20174980 89 81 105 571.000000
-2.51524997 -3.13525009 7.19925022 88 78 105 592.000000
-2.51499987 -3.13499999 7.19999981 88 78 105 578.000000
-2.51574993 -3.13599992 7.20375013 88 78 105 546.000000
-2.50974989 -3.12825012 7.18774986 87 77 104 535.000000
-2.50874996 -3.12724996 7.18674994 87 77 104 510.000000
-2.50699997 -3.12500000 7.18349981 86 73 101 557.000000
-2.51275015 -3.13225007 7.20149994 86 73 101 567.000000
-2.50900006 -3.12750006 7.19175005 86 73 101 550.000000
-2.50825000 -3.12649989 7.19099998 86 73 101 532.000000
-2.50699997 -3.12474990 7.18875027 86 73 101 507.000000
-2.50850010 -3.12700009 7.19500017 85 70 99 478.000000
-2.51499987 -3.13499999 7.21525002 85 70 99 489.000000
-2.50825000 -3.12649989 7.19675016 85 70 99 510.000000
-2.50775003 -3.12599993 7.19724989 85 70 99 521.000000
-2.51174998 -3.13100004 7.21049976 85 69 98 514.000000
-2.50999999 -3.12849998 7.20625019 85 69 98 517.000000
-2.50900006 -3.12750006 7.20550013 85 69 98 489.000000
-2.50775003 -3.12599993 7.20324993 85 69 98 528.000000
-2.50999999 -3.12875009 7.21124983 85 69 98 542.000000
-2.51125002 -3.13050008 7.21624994 84 65 95 546.000000
-2.51475000 -3.13474989 7.22800016 84 65 95 525.000000
-2.51049995 -3.12949991 7.21700001 84 65 95 539.000000
-2.50999999 -3.12875009 7.21700001 84 65 95 557.000000
-2.51324987 -3.13275003 7.22749996 84 65 95 542.000000
-2.50524998 -3.12299991 7.20625019 81 62 92 525.000000
-2.50624990 -3.12400007 7.21024990 81 62 92 571.000000
-2.50600004 -3.12374997 7.21124983 81 62 92 525.000000
-2.50825000 -3.12649989 7.21899986 81 62 92 578.000000
-2.50799990 -3.12625003 7.22000027 78 58 86 621.000000
-2.50650001 -3.12450004 7.21724987 78 58 86 607.000000
-2.50650001 -3.12424994 7.21824980 78 58 86 575.000000
-2.50425005 -3.12150002 7.21325016 78 58 86 585.000000
-2.51049995 -3.12949991 7.23325014 78 58 86 607.000000
-2.50500011 -3.12225008 7.21824980 75 55 82 553.000000
-2.50375009 -3.12100005 7.21675014 75 55 82 503.000000
-2.51174998 -3.13100004 7.24100018 75 55 82 375.000000
-2.53450012 -3.15875006 7.09899998 70 51 73 339.000000
-2.53299999 -3.15674996 7.09625006 72 53 81 392.000000
-2.53550005 -3.15974998 7.12750006 91 75 102 264.000000
-2.53125000 -3.15450001 7.11700010 91 75 102 360.000000
-2.52649999 -3.14875007 7.10500002 86 72 97 407.000000
-2.53200006 -3.15575004 7.12225008 86 72 97 478.000000
-2.52950001 -3.15225005 7.11625004 86 72 97 578.000000
-2.53474998 -3.15899992 7.13250017 86 72 97 550.000000
-2.52950001 -3.15249991 7.11950016 86 72 97 528.000000
-2.53524995 -3.15974998 7.13724995 83 69 92 571.000000
-2.53200006 -3.15549994 7.12925005 83 69 92 589.000000
-2.52874994 -3.15149999 7.12150002 83 69 92 546.000000
-2.53425002 -3.15825009 7.13824987 83 69 92 535.000000
-2.52925014 -3.15225005 7.12625027 83 69 92 532.000000
-2.53100014 -3.15424991 7.13224983 85 72 92 550.000000
-2.53025007 -3.15350008 7.13150024 85 72 92 510.000000
-2.52900004 -3.15175009 7.12925005 85 72 92 528.000000
-2.52850008 -3.15124989 7.12975025 85 72 92 567.000000
-2.52824998 -3.15100002 7.13049984 85 72 92 575.000000
-2.53375006 -3.15774989 7.14699984 85 72 92 560.000000
-2.53324986 -3.15724993 7.14750004 85 72 92 646.000000
-2.53200006 -3.15575004 7.14550018 85 72 92 614.000000
-2.52799988 -3.15050006 7.13500023 85 72 92 614.000000
-2.52850008 -3.15124989 7.13800001 88 76 96 600.000000
-2.52799988 -3.15074992 7.13850021 88 76 96 635.000000
-2.52300000 -3.14424992 7.12550020 88 76 96 578.000000
-2.52524996 -3.14724994 7.13374996 88 76 96 614.000000
-2.52349997 -3.14499998 7.13000011 88 76 96 614.000000
-2.52550006 -3.14750004 7.13700008 85 73 93 603.000000
-2.52749991 -3.15000010 7.14375019 85 73 93 582.000000
-2.52574992 -3.14800000 7.14074993 85 73 93 582.000000
-2.52699995 -3.14949989 7.14575005 85 73 93 528.000000
-2.52824998 -3.15100002 7.15075016 85 73 93 603.000000
-2.52649999 -3.14875007 7.14725018 85 73 95 564.000000
-2.52925014 -3.15225005 7.15649986 85 73 95 567.000000
-2.52649999 -3.14875007 7.14974976 85 73 95 553.000000
-2.53174996 -3.15525007 7.16599989 85 73 95 596.000000
-2.51950002 -3.14000010 7.13299990 85 73 95 564.000000
-2.53174996 -3.15525007 7.16874981 87 77 101 571.000000
-2.53049994 -3.15350008 7.16674995 87 77 101 567.000000
-2.52775002 -3.15024996 7.16050005 87 77 101 567.000000
-2.52574992 -3.14774990 7.15625000 87 77 101 539.000000
-2.52425003 -3.14599991 7.15374994 85 75 100 603.000000
-2.52574992 -3.14774990 7.15925026 85 75 100 510.000000
-2.52725005 -3.14974999 7.16524982 85 75 100 553.000000
-2.52550006 -3.14750004 7.16174984 85 75 100 639.000000
-2.52600002 -3.14800000 7.16450024 85 75 100 639.000000
-2.52399993 -3.14549994 7.15999985 83 73 98 650.000000
-2.52200007 -3.14324999 7.15600014 83 73 98 682.000000
-2.52624989 -3.14849997 7.16949987 83 73 98 703.000000
-2.52349997 -3.14499998 7.16300011 83 73 98 785.000000
-2.52449989 -3.14625001 7.16774988 83 73 98 767.000000
-2.52224994 -3.14350009 7.16275024 112 102 129 782.000000
-2.52500010 -3.14700007 7.17175007 112 102 129 878.000000
-2.52300000 -3.14450002 7.16774988 112 102 129 992.000000
-2.52274990 -3.14424992 7.16849995 112 102 129 1157.000000
-2.51999998 -3.14050007 7.16174984 112 102 129 1442.000000
-2.52125001 -3.14225006 7.16725016 156 148 172 2125.000000
-2.52125001 -3.14225006 7.16825008 156 148 172 3782.000000
-2.52099991 -3.14175010 7.16874981 156 148 172 6492.000000
-2.52099991 -3.14175010 7.17024994 156 148 172 9060.000000
-2.51999998 -3.14074993 7.16925001 156 148 172 9839.000000
-2.51999998 -3.14074993 7.17075014 193 189 206 8464.000000
-2.51950002 -3.14000010 7.17100000 193 189 206 6010.000000
-2.51975012 -3.14024997 7.17275000 193 189 206 3707.000000
-2.51999998 -3.14074993 7.17500019 193 189 206 2232.000000
-2.51749992 -3.13750005 7.16925001 192 190 204 1453.000000
-2.51874995 -3.13925004 7.17449999 192 190 204 1010.000000
-2.51874995 -3.13925004 7.17624998 192 190 204 896.000000
-2.51900005 -3.13949990 7.17824984 192 190 204 803.000000
-2.51399994 -3.13325000 7.16524982 192 190 204 782.000000
-2.51399994 -3.13325000 7.16674995 194 191 208 742.000000
-2.52174997 -3.14300013 7.19050026 194 191 208 728.000000
-2.51349998 -3.13249993 7.16800022 194 191 208 617.000000
-2.51200008 -3.13074994 7.16524982 194 191 208 642.000000
-2.51250005 -3.13124990 7.16825008 194 191 208 614.000000
-2.51475000 -3.13424993 7.17649984 167 162 182 639.000000
-2.51099992 -3.12925005 7.16650009 167 162 182 567.000000
-2.51574993 -3.13525009 7.18200016 167 162 182 575.000000
-2.51524997 -3.13474989 7.18200016 167 162 182 592.000000
-2.51600003 -3.13549995 7.18550014 167 162 182 639.000000
-2.51999998 -3.14050007 7.19824982 116 108 131 607.000000
-2.51475000 -3.13424993 7.18499994 116 108 131 603.000000
-2.51625013 -3.13599992 7.19075012 116 108 131 646.000000
-2.51250005 -3.13150001 7.18149996 116 108 131 589.000000
-2.51499987 -3.13450003 7.19000006 89 81 105 617.000000
-2.51650000 -3.13625002 7.19575024 89 81 105 617.000000
-2.51349998 -3.13249993 7.18875027 89 81 105 578.000000
-2.51975012 -3.14050007 7.20825005 89 81 105 557.000000
-2.51450014 -3.13400006 7.19474983 89 81 105 546.000000
-2.51324987 -3.13225007 7.19250011 88 78 105 539.000000
-2.51475000 -3.13424993 7.19824982 88 78 105 546.000000
-2.51224995 -3.13100004 7.19225025 88 78 105 557.000000
-2.50775003 -3.12549996 7.18125010 88 78 105 571.000000
-2.50775003 -3.12549996 7.18274975 88 78 105 521.000000
-2.51924992 -3.13949990 7.21649981 86 73 101 546.000000
-2.51250005 -3.13124990 7.19899988 86 73 101 553.000000
-2.51125002 -3.13000011 7.19724989 86 73 101 517.000000
-2.51099992 -3.12925005 7.19750023 86 73 101 550.000000
-2.51524997 -3.13474989 7.21150017 86 73 101 489.000000
-2.51200008 -3.13074994 7.20375013 85 70 99 567.000000
-2.51574993 -3.13549995 7.21600008 85 70 99 546.000000
-2.50775003 -3.12549996 7.19425011 85 70 99 485.000000
-2.51349998 -3.13249993 7.21199989 85 70 99 503.000000
-2.50874996 -3.12674999 7.19999981 85 70 99 500.000000
-2.51174998 -3.13024998 7.21000004 85 69 98 492.000000
-2.50999999 -3.12825012 7.20674992 85 69 98 489.000000
-2.51399994 -3.13325000 7.21950006 85 69 98 510.000000
-2.50725007 -3.12474990 7.20174980 85 69 98 514.000000
-2.50699997 -3.12450004 7.20225000 84 65 95 560.000000
-2.50974989 -3.12774992 7.21150017 84 65 95 596.000000
-2.50775003 -3.12525010 7.20725012 84 65 95 521.000000
-2.50399995 -3.12074995 7.19799995 84 65 95 553.000000
-2.50699997 -3.12424994 7.20774984 84 65 95 503.000000
-2.51149988 -3.13000011 7.22275019 81 62 92 546.000000
-2.50250006 -3.11875010 7.19799995 81 62 92 532.000000
-2.50775003 -3.12525010 7.21449995 81 62 92 542.000000
-2.50399995 -3.12050009 7.20524979 81 62 92 571.000000
-2.50500011 -3.12199998 7.20975018 81 62 92 542.000000
-2.50850010 -3.12649989 7.22175026 78 58 86 578.000000
-2.50250006 -3.11875010 7.20524979 78 58 86 607.000000
-2.50675011 -3.12400007 7.21925020 78 58 86 578.000000
-2.50675011 -3.12424994 7.22074986 78 58 86 592.000000
-2.50600004 -3.12299991 7.21974993 78 58 86 578.000000
-2.50749993 -3.12500000 7.22574997 75 55 82 550.000000
-2.50775003 -3.12525010 7.22774982 75 55 82 428.000000
-2.50349998 -3.11999989 7.21700001 75 55 82 307.000000
-2.53324986 -3.15674996 7.09549999 70 51 73 432.000000
-2.53699994 -3.16125011 7.10725021 72 53 81 364.000000
-2.54274988 -3.16849995 7.14799976 91 75 102 275.000000
-2.52675009 -3.14849997 7.10424995 91 75 102 400.000000
-2.53025007 -3.15299988 7.11600018 86 72 97 442.000000
-2.53324986 -3.15674996 7.12599993 86 72 97 496.000000
-2.53425002 -3.15774989 7.12975025 86 72 97 550.000000
-2.53399992 -3.15750003 7.13049984 86 72 97 539.000000
-2.53075004 -3.15350008 7.12300014 86 72 97 567.000000
-2.52950001 -3.15199995 7.12074995 83 69 92 550.000000
-2.52824998 -3.15024996 7.11849976 83 69 92 535.000000
-2.52900004 -3.15124989 7.12225008 83 69 92 539.000000
-2.52950001 -3.15199995 7.12500000 83 69 92 532.000000
-2.53100014 -3.15374994 7.13075018 85 72 92 475.000000
-2.52449989 -3.14575005 7.11425018 85 72 92 542.000000
-2.52624989 -3.14774990 7.11999989 85 72 92 528.000000
-2.52950001 -3.15199995 7.13124990 85 72 92 575.000000
-2.52900004 -3.15149999 7.13100004 85 72 92 532.000000
-2.53149986 -3.15450001 7.13950014 85 72 92 585.000000
-2.52799988 -3.15000010 7.13075018 85 72 92 646.000000
-2.53149986 -3.15450001 7.14225006 85 72 92 617.000000
-2.53149986 -3.15450001 7.14375019 85 72 92 653.000000
-2.52824998 -3.15050006 7.13625002 85 72 92 635.000000
-2.52749991 -3.14949989 7.13525009 88 76 96 610.000000
-2.52900004 -3.15124989 7.14074993 88 76 96 603.000000
-2.52775002 -3.14974999 7.13875008 88 76 96 617.000000
-2.52550006 -3.14700007 7.13425016 88 76 96 592.000000
-2.52200007 -3.14249992 7.12550020 88 76 96 582.000000
-2.53125000 -3.15400004 7.15299988 85 73 93 578.000000
-2.52300000 -3.14374995 7.13124990 85 73 93 550.000000
-2.53174996 -3.15499997 7.15775013 85 73 93 610.000000
-2.52699995 -3.14875007 7.14524984 85 73 93 535.000000
-2.52325010 -3.14400005 7.13600016 85 73 93 550.000000
-2.52649999 -3.14825010 7.14725018 85 73 95 564.000000
-2.52874994 -3.15100002 7.15474987 85 73 95 607.000000
-2.52300000 -3.14400005 7.14025021 85 73 95 582.000000
-2.52600002 -3.14774990 7.15024996 85 73 95 550.000000
-2.52375007 -3.14475012 7.14524984 87 77 101 585.000000
-2.52874994 -3.15100002 7.16074991 87 77 101 564.000000
-2.53125000 -3.15400004 7.16874981 87 77 101 589.000000
-2.52550006 -3.14700007 7.15450001 87 77 101 571.000000
-2.52524996 -3.14650011 7.15474987 87 77 101 542.000000
-2.52550006 -3.14700007 7.15724993 85 75 100 603.000000
-2.52449989 -3.14599991 7.15625000 85 75 100 575.000000
-2.52449989 -3.14575005 7.15724993 85 75 100 600.000000
-2.52375007 -3.14499998 7.15700006 85 75 100 632.000000
-2.52425003 -3.14549994 7.15974998 85 75 100 714.000000
-2.52600002 -3.14774990 7.16599989 83 73 98 632.000000
-2.52500010 -3.14625001 7.16450024 83 73 98 689.000000
-2.52150011 -3.14199996 7.15625000 83 73 98 764.000000
-2.52500010 -3.14650011 7.16750002 83 73 98 782.000000
-2.52500010 -3.14650011 7.16900015 112 102 129 846.000000
-2.52125001 -3.14150000 7.15950012 112 102 129 875.000000
-2.52325010 -3.14424992 7.16725016 112 102 129 932.000000
-2.51824999 -3.13800001 7.15425014 112 102 129 1042.000000
-2.52325010 -3.14400005 7.16949987 112 102 129 1167.000000
-2.52174997 -3.14249992 7.16725016 156 148 172 1639.000000
-2.52125001 -3.14175010 7.16725016 156 148 172 2807.000000
-2.52099991 -3.14150000 7.16800022 156 148 172 5371.000000
-2.52075005 -3.14100003 7.16800022 156 148 172 8207.000000
-2.52099991 -3.14124990 7.17024994 156 148 172 10089.000000
-2.52025008 -3.14050007 7.17024994 193 189 206 9625.000000
-2.52049994 -3.14074993 7.17224979 193 189 206 7814.000000
-2.51924992 -3.13899994 7.16975021 193 189 206 5075.000000
-2.51874995 -3.13849998 7.16975021 193 189 206 3150.000000
-2.51874995 -3.13849998 7.17150021 193 189 206 1978.000000
-2.51900005 -3.13875008 7.17325020 192 190 204 1328.000000
-2.51725006 -3.13674998 7.17000008 192 190 204 1032.000000
-2.52025008 -3.14024997 7.17974997 192 190 204 889.000000
-2.51625013 -3.13549995 7.17024994 192 190 204 800.000000
-2.51849985 -3.13824987 7.17799997 192 190 204 767.000000
-2.51399994 -3.13275003 7.16674995 194 191 208 710.000000
-2.51600003 -3.13499999 7.17374992 194 191 208 703.000000
-2.51524997 -3.13424993 7.17299986 194 191 208 635.000000
-2.51674986 -3.13625002 7.17899990 194 191 208 653.000000
-2.51874995 -3.13849998 7.18599987 167 162 182 614.000000
-2.51674986 -3.13599992 7.18174982 167 162 182 600.000000
-2.52300000 -3.14374995 7.20100021 167 162 182 553.000000
-2.51650000 -3.13575006 7.18424988 167 162 182 578.000000
-2.51824999 -3.13800001 7.19024992 167 162 182 585.000000
-2.52325010 -3.14424992 7.20625019 116 108 131 596.000000
-2.51800013 -3.13750005 7.19250011 116 108 131 560.000000
-2.51349998 -3.13175011 7.18099976 116 108 131 567.000000
-2.51749992 -3.13724995 7.19449997 116 108 131 585.000000
-2.51699996 -3.13625002 7.19400024 116 108 131 635.000000
-2.51699996 -3.13649988 7.19600010 89 81 105 625.000000
-2.51574993 -3.13499999 7.19374990 89 81 105 628.000000
-2.51250005 -3.13050008 7.18524981 89 81 105 557.000000
-2.51600003 -3.13525009 7.19724989 89 81 105 578.000000
-2.51800013 -3.13774991 7.20475006 89 81 105 582.000000
-2.51900005 -3.13875008 7.20874977 88 78 105 539.000000
-2.51075006 -3.12875009 7.18699980 88 78 105 553.000000
-2.51550007 -3.13450003 7.20174980 88 78 105 546.000000
-2.50900006 -3.12649989 7.18475008 88 78 105 553.000000
-2.51375008 -3.13225007 7.19950008 88 78 105 539.000000
-2.50950003 -3.12724996 7.18924999 86 73 101 517.000000
-2.51025009 -3.12800002 7.19225025 86 73 101 507.000000
-2.50799990 -3.12500000 7.18725014 86 73 101 500.000000
-2.51025009 -3.12800002 7.19575024 86 73 101 507.000000
-2.50850010 -3.12575006 7.19199991 85 70 99 492.000000
-2.50950003 -3.12700009 7.19624996 85 70 99 535.000000
-2.51324987 -3.13175011 7.20825005 85 70 99 507.000000
-2.51425004 -3.13299990 7.21274996 85 70 99 496.000000
-2.51149988 -3.12949991 7.20625019 85 70 99 492.000000
-2.51300001 -3.13124990 7.21199989 85 69 98 507.000000
-2.51324987 -3.13150001 7.21399975 85 69 98 485.000000
-2.50725007 -3.12424994 7.19899988 85 69 98 478.000000
-2.51650000 -3.13575006 7.22650003 85 69 98 582.000000
-2.51224995 -3.13050008 7.21600008 85 69 98 542.000000
-2.50900006 -3.12625003 7.20774984 84 65 95 521.000000
-2.50850010 -3.12599993 7.20849991 84 65 95 485.000000
-2.51174998 -3.12975001 7.21850014 84 65 95 517.000000
-2.50749993 -3.12450004 7.20825005 84 65 95 503.000000
-2.50900006 -3.12649989 7.21399975 84 65 95 542.000000
-2.50675011 -3.12350011 7.20874977 81 62 92 528.000000
-2.50825000 -3.12549996 7.21449995 81 62 92 596.000000
-2.50974989 -3.12724996 7.22025013 81 62 92 550.000000
-2.50749993 -3.12474990 7.21574974 81 62 92 557.000000
-2.50825000 -3.12549996 7.21899986 78 58 86 592.000000
-2.50425005 -3.12050009 7.20900011 78 58 86 567.000000
-2.50999999 -3.12750006 7.22700024 78 58 86 564.000000
-2.50749993 -3.12450004 7.22125006 78 58 86 585.000000
-2.50250006 -3.11824989 7.20800018 78 58 86 589.000000
-2.50775003 -3.12474990 7.22475004 75 55 82 560.000000
-2.50600004 -3.12249994 7.22125006 75 55 82 482.000000
-2.50624990 -3.12299991 7.22375011 75 55 82 335.000000
-2.54274988 -3.16799998 7.11950016 70 51 73 264.000000
-2.53200006 -3.15450001 7.09025002 70 51 73 400.000000
-2.53100014 -3.15350008 7.08949995 72 53 81 475.000000
-2.53749990 -3.16125011 7.10850000 72 53 81 353.000000
-2.53600001 -3.15950012 7.12900019 91 75 102 392.000000
-2.53524995 -3.15849996 7.12849998 86 72 97 435.000000
-2.52974987 -3.15175009 7.11425018 86 72 97 503.000000
-2.53075004 -3.15299988 7.11849976 86 72 97 503.000000
-2.53349996 -3.15625000 7.12750006 86 72 97 546.000000
-2.53200006 -3.15450001 7.12524986 86 72 97 514.000000
-2.53349996 -3.15650010 7.13075018 83 69 92 542.000000
-2.53474998 -3.15799999 7.13549995 83 69 92 546.000000
-2.53025007 -3.15225005 7.12424994 83 69 92 578.000000
-2.52850008 -3.15000010 7.12050009 83 69 92 503.000000
-2.53174996 -3.15424991 7.13150024 83 69 92 514.000000
-2.52999997 -3.15225005 7.12825012 85 72 92 485.000000
-2.53425002 -3.15724993 7.14099979 85 72 92 546.000000
-2.53224993 -3.15475011 7.13700008 85 72 92 550.000000
-2.53500009 -3.15825009 7.14674997 85 72 92 578.000000
-2.53299999 -3.15575004 7.14225006 85 72 92 560.000000
-2.53075004 -3.15299988 7.13724995 85 72 92 617.000000
-2.52775002 -3.14925003 7.13024998 85 72 92 603.000000
-2.53250003 -3.15499997 7.14475012 85 72 92 667.000000
-2.53075004 -3.15299988 7.14174986 85 72 92 639.000000
-2.52850008 -3.15000010 7.13649988 88 76 96 592.000000
-2.52974987 -3.15175009 7.14174986 88 76 96 600.000000
-2.52799988 -3.14949989 7.13824987 88 76 96 592.000000
-2.52950001 -3.15149999 7.14400005 88 76 96 625.000000
-2.52999997 -3.15225005 7.14699984 88 76 96 625.000000
-2.53149986 -3.15374994 7.15224981 85 73 93 578.000000
-2.53049994 -3.15249991 7.15100002 85 73 93 575.000000
-2.52624989 -3.14724994 7.14025021 85 73 93 550.000000
-2.52925014 -3.15124989 7.15075016 85 73 93 585.000000
-2.53049994 -3.15249991 7.15525007 85 73 93 578.000000
-2.53224993 -3.15499997 7.16200018 85 73 95 539.000000
-2.53075004 -3.15299988 7.15899992 85 73 95 578.000000
-2.52624989 -3.14750004 7.14799976 85 73 95 571.000000
-2.52624989 -3.14724994 7.14900017 85 73 95 575.000000
-2.52600002 -3.14700007 7.15000010 85 73 95 617.000000
-2.52375007 -3.14424992 7.14524984 87 77 101 600.000000
-2.52574992 -3.14674997 7.15224981 87 77 101 560.000000
-2.52474999 -3.14549994 7.15049982 87 77 101 578.000000
-2.52749991 -3.14899993 7.15999985 87 77 101 564.000000
-2.52725005 -3.14849997 7.16050005 85 75 100 510.000000
-2.52574992 -3.14674997 7.15775013 85 75 100 582.000000
-2.52449989 -3.14499998 7.15574980 85 75 100 582.000000
-2.52425003 -3.14499998 7.15675020 85 75 100 667.000000
-2.52850008 -3.15024996 7.17024994 85 75 100 646.000000
-2.52649999 -3.14750004 7.16575003 83 73 98 689.000000
-2.52300000 -3.14324999 7.15750027 83 73 98 714.000000
-2.52274990 -3.14300013 7.15799999 83 73 98 685.000000
-2.52250004 -3.14275002 7.15875006 83 73 98 782.000000
-2.52200007 -3.14199996 7.15875006 83 73 98 800.000000
-2.52099991 -3.14074993 7.15700006 112 102 129 889.000000
-2.51999998 -3.13949990 7.15600014 112 102 129 871.000000
-2.52250004 -3.14275002 7.16475010 112 102 129 960.000000
-2.52425003 -3.14499998 7.17124987 112 102 129 1132.000000
-2.52099991 -3.14074993 7.16324997 112 102 129 1375.000000
-2.52200007 -3.14199996 7.16774988 156 148 172 2153.000000
-2.52174997 -3.14175010 7.16825008 156 148 172 4296.000000
-2.52099991 -3.14100003 7.16800022 156 148 172 7167.000000
-2.52099991 -3.14074993 7.16925001 156 148 172 9989.000000
-2.52125001 -3.14100003 7.17124987 156 148 172 10564.000000
-2.52099991 -3.14100003 7.17224979 193 189 206 9278.000000
-2.52049994 -3.14000010 7.17175007 193 189 206 7346.000000
-2.51999998 -3.13949990 7.17199993 193 189 206 4607.000000
-2.51950002 -3.13875008 7.17175007 193 189 206 2896.000000
-2.52025008 -3.13975000 7.17525005 192 190 204 1828.000000
-2.51824999 -3.13724995 7.17150021 192 190 204 1328.000000
-2.51950002 -3.13899994 7.17649984 192 190 204 967.000000
-2.51924992 -3.13849998 7.17700005 192 190 204 871.000000
-2.51849985 -3.13774991 7.17649984 192 190 204 796.000000
-2.52075005 -3.14050007 7.18449974 194 191 208 732.000000
-2.52049994 -3.14024997 7.18524981 194 191 208 717.000000
-2.51524997 -3.13374996 7.17199993 194 191 208 660.000000
-2.51800013 -3.13700008 7.18074989 194 191 208 646.000000
-2.51775002 -3.13700008 7.18200016 194 191 208 617.000000
-2.51800013 -3.13724995 7.18424988 167 162 182 600.000000
-2.51824999 -3.13750005 7.18650007 167 162 182 614.000000
-2.51375008 -3.13175011 7.17500019 167 162 182 550.000000
-2.51749992 -3.13649988 7.18725014 167 162 182 578.000000
-2.51625013 -3.13474989 7.18449974 167 162 182 614.000000
-2.51349998 -3.13150001 7.17875004 116 108 131 628.000000
-2.51499987 -3.13350010 7.18424988 116 108 131 617.000000
-2.51375008 -3.13175011 7.18174982 116 108 131 607.000000
-2.51775002 -3.13649988 7.19474983 116 108 131 614.000000
-2.51399994 -3.13199997 7.18575001 116 108 131 600.000000
-2.51375008 -3.13175011 7.18650007 89 81 105 632.000000
-2.50999999 -3.12724996 7.17749977 89 81 105 571.000000
-2.51399994 -3.13225007 7.19024992 89 81 105 578.000000
-2.51025009 -3.12724996 7.18050003 89 81 105 564.000000
-2.51524997 -3.13374996 7.19675016 88 78 105 567.000000
-2.51499987 -3.13325000 7.19724989 88 78 105 514.000000
-2.51749992 -3.13625002 7.20574999 88 78 105 553.000000
-2.51625013 -3.13499999 7.20400000 88 78 105 589.000000
-2.51600003 -3.13450003 7.20424986 88 78 105 557.000000
-2.51349998 -3.13150001 7.19875002 86 73 101 514.000000
-2.51174998 -3.12949991 7.19549990 86 73 101 542.000000
-2.51174998 -3.12925005 7.19700003 86 73 101 539.000000
-2.51099992 -3.12849998 7.19624996 86 73 101 500.000000
-2.51149988 -3.12899995 7.19925022 86 73 101 521.000000
-2.50950003 -3.12625003 7.19449997 85 70 99 489.000000
-2.51399994 -3.13199997 7.20900011 85 70 99 464.000000
-2.51499987 -3.13350010 7.21374989 85 70 99 532.000000
-2.50850010 -3.12525010 7.19649982 85 70 99 475.000000
-2.50974989 -3.12674999 7.20125008 85 70 99 503.000000
-2.50825000 -3.12500000 7.19850016 85 69 98 485.000000
-2.50999999 -3.12700009 7.20475006 85 69 98 496.000000
-2.50900006 -3.12599993 7.20375013 85 69 98 517.000000
-2.51224995 -3.12975001 7.21425009 85 69 98 553.000000
-2.51099992 -3.12825012 7.21224976 84 65 95 478.000000
-2.50850010 -3.12525010 7.20650005 84 65 95 542.000000
-2.50725007 -3.12374997 7.20450020 84 65 95 542.000000
-2.51300001 -3.13074994 7.22200012 84 65 95 539.000000
-2.50850010 -3.12525010 7.21099997 84 65 95 546.000000
-2.50475001 -3.12074995 7.20200014 81 62 92 500.000000
-2.50825000 -3.12474990 7.21299982 81 62 92 575.000000
-2.50650001 -3.12249994 7.20924997 81 62 92 560.000000
-2.50624990 -3.12225008 7.21024990 81 62 92 603.000000
-2.50775003 -3.12450004 7.21649981 81 62 92 550.000000
-2.51099992 -3.12825012 7.22674990 78 58 86 646.000000
-2.50425005 -3.11975002 7.20874977 78 58 86 603.000000
-2.50274992 -3.11800003 7.20599985 78 58 86 567.000000
-2.50300002 -3.11849999 7.20849991 78 58 86 585.000000
-2.50550008 -3.12150002 7.21724987 78 58 86 560.000000
-2.50675011 -3.12299991 7.22175026 75 55 82 496.000000
-2.50449991 -3.12024999 7.21724987 75 55 82 396.000000
-2.50650001 -3.12275004 7.22450018 75 55 82 307.000000
-2.54449987 -3.16949987 7.12424994 70 51 73 271.000000
-2.53800011 -3.16149998 7.10750008 70 51 73 425.000000
-2.53649998 -3.15950012 7.10449982 72 53 81 378.000000
-2.52749991 -3.14825010 7.10325003 91 75 102 310.000000
-2.52775002 -3.14875007 7.10599995 91 75 102 389.000000
-2.52999997 -3.15149999 7.11374998 86 72 97 478.000000
-2.53900003 -3.16275001 7.14050007 86 72 97 510.000000
-2.53174996 -3.15374994 7.12150002 86 72 97 539.000000
-2.53324986 -3.15549994 7.12699986 86 72 97 500.000000
-2.53500009 -3.15774989 7.13350010 83 69 92 532.000000
-2.53125000 -3.15299988 7.12424994 83 69 92 517.000000
-2.53474998 -3.15750003 7.13574982 83 69 92 528.000000
-2.52600002 -3.14650011 7.11224985 83 69 92 560.000000
-2.52874994 -3.14974999 7.12125015 83 69 92 539.000000
-2.53299999 -3.15525007 7.13525009 85 72 92 546.000000
-2.53025007 -3.15175009 7.12849998 85 72 92 492.000000
-2.53224993 -3.15424991 7.13549995 85 72 92 567.000000
-2.53075004 -3.15249991 7.13275003 85 72 92 578.000000
-2.53100014 -3.15249991 7.13474989 85 72 92 528.000000
-2.52950001 -3.15100002 7.13250017 85 72 92 550.000000
-2.53250003 -3.15475011 7.14225006 85 72 92 535.000000
-2.53100014 -3.15275002 7.13950014 85 72 92 660.000000
-2.53025007 -3.15175009 7.13850021 85 72 92 600.000000
-2.53149986 -3.15324998 7.14375019 85 72 92 610.000000
-2.52874994 -3.15000010 7.13775015 88 76 96 628.000000
-2.53025007 -3.15199995 7.14324999 88 76 96 603.000000
-2.52500010 -3.14525008 7.12975025 88 76 96 614.000000
-2.52725005 -3.14800000 7.13724995 88 76 96 600.000000
-2.53025007 -3.15175009 7.14750004 88 76 96 596.000000
-2.52799988 -3.14899993 7.14225006 85 73 93 546.000000
-2.53125000 -3.15299988 7.15299988 85 73 93 550.000000
-2.52850008 -3.14949989 7.14674997 85 73 93 596.000000
-2.53125000 -3.15299988 7.15600014 85 73 93 575.000000
-2.53174996 -3.15350008 7.15850019 85 73 95 564.000000
-2.52524996 -3.14549994 7.14174986 85 73 95 614.000000
-2.52449989 -3.14475012 7.14150000 85 73 95 632.000000
-2.52874994 -3.14974999 7.15450001 85 73 95 550.000000
-2.52925014 -3.15074992 7.15775013 85 73 95 610.000000
-2.52900004 -3.15024996 7.15850019 87 77 101 585.000000
-2.52425003 -3.14424992 7.14650011 87 77 101 571.000000
-2.52799988 -3.14899993 7.15875006 87 77 101 557.000000
-2.52974987 -3.15124989 7.16499996 87 77 101 621.000000
-2.52449989 -3.14450002 7.15124989 87 77 101 575.000000
-2.52675009 -3.14750004 7.15950012 85 75 100 603.000000
-2.52974987 -3.15100002 7.16874981 85 75 100 589.000000
-2.52174997 -3.14124990 7.14774990 85 75 100 635.000000
-2.52574992 -3.14599991 7.16050005 85 75 100 667.000000
-2.52500010 -3.14525008 7.15999985 85 75 100 639.000000
-2.52624989 -3.14674997 7.16499996 83 73 98 664.000000
-2.52775002 -3.14875007 7.17100000 83 73 98 717.000000
-2.52399993 -3.14400005 7.16174984 83 73 98 692.000000
-2.52524996 -3.14575005 7.16674995 83 73 98 789.000000
-2.52624989 -3.14700007 7.17100000 112 102 129 846.000000
-2.53025007 -3.15175009 7.18349981 112 102 129 882.000000
-2.52449989 -3.14475012 7.16874981 112 102 129 896.000000
-2.52399993 -3.14400005 7.16874981 112 102 129 1017.000000
-2.52174997 -3.14100003 7.16375017 112 102 129 1225.000000
-2.52150011 -3.14100003 7.16475010 156 148 172 1732.000000
-2.52200007 -3.14150000 7.16750002 156 148 172 3364.000000
-2.52150011 -3.14100003 7.16750002 156 148 172 6142.000000
-2.52174997 -3.14124990 7.17000008 156 148 172 9250.000000
-2.52125001 -3.14074993 7.17000008 156 148 172 11385.000000
-2.52049994 -3.13975000 7.16925001 193 189 206 10971.000000
-2.52075005 -3.14000010 7.17150021 193 189 206 9439.000000
-2.51999998 -3.13899994 7.17075014 193 189 206 6860.000000
-2.51900005 -3.13800001 7.16949987 193 189 206 4450.000000
-2.51800013 -3.13649988 7.16750002 193 189 206 2857.000000
-2.51975012 -3.13875008 7.17425013 192 190 204 1860.000000
-2.52025008 -3.13949990 7.17724991 192 190 204 1242.000000
-2.51975012 -3.13875008 7.17724991 192 190 204 964.000000
-2.51975012 -3.13875008 7.17875004 192 190 204 853.000000
-2.51800013 -3.13649988 7.17474985 192 190 204 767.000000
-2.52150011 -3.14074993 7.18624973 194 191 208 735.000000
-2.51650000 -3.13474989 7.17399979 194 191 208 689.000000
-2.51699996 -3.13525009 7.17675018 194 191 208 682.000000
-2.51300001 -3.13050008 7.16699982 194 191 208 660.000000
-2.51699996 -3.13525009 7.17924976 194 191 208 639.000000
-2.52150011 -3.14074993 7.19374990 167 162 182 646.000000
-2.51250005 -3.12949991 7.16925001 167 162 182 571.000000
-2.52099991 -3.14024997 7.19525003 167 162 182 546.000000
-2.51725006 -3.13575006 7.18624973 167 162 182 671.000000
-2.51625013 -3.13424993 7.18449974 116 108 131 635.000000
-2.51499987 -3.13275003 7.18249989 116 108 131 632.000000
-2.51300001 -3.13024998 7.17824984 116 108 131 614.000000
-2.52025008 -3.13925004 7.20050001 116 108 131 628.000000
-2.51674986 -3.13474989 7.19175005 116 108 131 603.000000
-2.51224995 -3.12949991 7.18074989 89 81 105 596.000000
-2.51524997 -3.13325000 7.19075012 89 81 105 600.000000
-2.51550007 -3.13350010 7.19299984 89 81 105 571.000000
-2.52125001 -3.14050007 7.21075010 89 81 105 589.000000
-2.51600003 -3.13400006 7.19675016 89 81 105 567.000000
-2.51324987 -3.13050008 7.19050026 88 78 105 550.000000
-2.51950002 -3.13824987 7.21000004 88 78 105 514.000000
-2.51600003 -3.13400006 7.20125008 88 78 105 550.000000
-2.50775003 -3.12374997 7.17974997 88 78 105 557.000000
-2.51574993 -3.13374996 7.20375013 86 73 101 592.000000
-2.51499987 -3.13275003 7.20300007 86 73 101 553.000000
-2.51025009 -3.12674999 7.19075012 86 73 101 507.000000
-2.51499987 -3.13275003 7.20625019 86 73 101 517.000000
-2.51450014 -3.13199997 7.20599985 86 73 101 467.000000
-2.50825000 -3.12424994 7.18975019 85 70 99 471.000000
-2.51450014 -3.13225007 7.20924997 85 70 99 514.000000
-2.51250005 -3.12975001 7.20499992 85 70 99 457.000000
-2.51275015 -3.13000011 7.20725012 85 70 99 510.000000
-2.51499987 -3.13275003 7.21449995 85 70 99 489.000000
-2.50850010 -3.12474990 7.19775009 85 69 98 510.000000
-2.51224995 -3.12949991 7.21024990 85 69 98 492.000000
-2.51200008 -3.12899995 7.21075010 85 69 98 514.000000
-2.51499987 -3.13299990 7.22100019 85 69 98 485.000000
-2.51200008 -3.12899995 7.21374989 85 69 98 546.000000
-2.50600004 -3.12150002 7.19775009 84 65 95 560.000000
-2.50799990 -3.12400007 7.20524979 84 65 95 525.000000
-2.50699997 -3.12275004 7.20375013 84 65 95 510.000000
-2.51300001 -3.13024998 7.22249985 84 65 95 539.000000
-2.50725007 -3.12299991 7.20699978 84 65 95 560.000000
-2.50999999 -3.12674999 7.21700001 81 62 92 589.000000
-2.50775003 -3.12374997 7.21175003 81 62 92 592.000000
-2.51275015 -3.13000011 7.22774982 81 62 92 542.000000
-2.50825000 -3.12424994 7.21600008 81 62 92 575.000000
-2.50699997 -3.12275004 7.21374989 81 62 92 582.000000
-2.50974989 -3.12625003 7.22350025 78 58 86 625.000000
-2.50500011 -3.12024999 7.21099997 78 58 86 560.000000
-2.51375008 -3.13124990 7.23799992 78 58 86 592.000000
-2.50974989 -3.12599993 7.22749996 78 58 86 553.000000
-2.50150013 -3.11599994 7.20550013 75 55 82 525.000000
